-353.538483,-77.336525,1149.000000
-360.971161,-81.509598,1211.000000
-349.326935,-81.509598,1211.000000
-348.557709,-84.134598,1250.000000
-334.384644,-83.596138,1242.000000
-315.951935,-81.913445,1217.000000
-322.500000,-86.826912,1290.000000
-295.913483,-82.855759,1231.000000
-283.153870,-82.586525,1227.000000
-268.701935,-81.778831,1215.000000
-265.057709,-84.336525,1253.000000
-236.653854,-78.884605,1172.000000
-231.923096,-81.173065,1206.000000
-214.298096,-78.951912,1173.000000
-214.788483,-83.528831,1241.000000
-203.673096,-83.865372,1246.000000
-188.615402,-82.519218,1226.000000
-177.836548,-82.990372,1233.000000
-167.730789,-83.865372,1246.000000
-143.750015,-77.403831,1150.000000
-134.769241,-78.615372,1168.000000
-124.490395,-79.221138,1177.000000
-112.692322,-78.884605,1172.000000
-101.250015,-78.749985,1170.000000
-87.230782,-76.326912,1134.000000
-72.557701,-72.557678,1078.000000
-60.173088,-70.201912,1043.000000
-44.903858,-62.865376,934.000000
-36.384624,-63.673065,946.000000
-28.211550,-65.826912,978.000000
-18.173088,-63.605759,945.000000
-9.144241,-64.009605,951.000000
-0.000010,-60.240376,895.000000
9.028835,-63.201912,939.000000
20.230757,-70.807678,1052.000000
26.855759,-62.663452,931.000000
34.653835,-60.644222,901.000000
45.192295,-63.269218,940.000000
51.634605,-60.240376,895.000000
63.067295,-63.067295,937.000000
72.307678,-63.269218,940.000000
76.673065,-59.634605,886.000000
89.615372,-62.730759,932.000000
97.942299,-62.326912,926.000000
112.615372,-65.692299,976.000000
116.874992,-62.932682,935.000000
125.192299,-62.596142,930.000000
137.163452,-64.009605,951.000000
144.461533,-63.201912,939.000000
154.471146,-63.605759,945.000000
157.846146,-61.384605,912.000000
173.740372,-64.009605,951.000000
188.653839,-66.028831,981.000000
193.644226,-64.548065,959.000000
210.480759,-66.971146,995.000000
201.913452,-61.451912,913.000000
218.999985,-63.874989,949.000000
230.528839,-64.548065,959.000000
215.499985,-58.019222,862.000000
251.567291,-65.221146,969.000000
267.615387,-66.903831,994.000000
269.644226,-65.086525,967.000000
280.961517,-65.557678,974.000000
277.509613,-62.663452,931.000000
308.923065,-67.576912,1004.000000
310.326904,-65.826912,978.000000
317.442291,-65.355759,971.000000
303.894226,-60.778835,903.000000
348.230743,-67.711525,1006.000000
390.990387,-73.971138,1099.000000
422.019226,-77.740372,1155.000000
468.750000,-84.134598,1250.000000
440.769226,-77.134605,1146.000000
493.576904,-84.269218,1252.000000
468.461517,-78.076912,1160.000000
483.750000,-78.749985,1170.000000
505.153839,-80.365372,1194.000000
508.413452,-79.086525,1175.000000
554.211548,-84.336525,1253.000000
547.730774,-81.576912,1212.000000
571.846130,-83.394218,1239.000000
583.288452,-83.326912,1238.000000
584.134583,-81.778831,1215.000000
579.634583,-79.557678,1182.000000
612.000000,-82.384598,1224.000000
616.634583,-81.442291,1210.000000
636.057678,-82.451912,1225.000000
648.894226,-82.586525,1227.000000
646.692322,-80.836525,1201.000000
682.903809,-83.865372,1246.000000
698.230774,-84.269218,1252.000000
680.769226,-80.769218,1200.000000
663.461548,-77.403831,1150.000000
723.788452,-83.057678,1234.000000
731.480774,-82.586525,1227.000000
748.125000,-83.124985,1235.000000
756.307678,-82.721138,1229.000000
764.375000,-82.317291,1223.000000
774.230774,-82.115372,1220.000000
798.846130,-83.461525,1240.000000
809.461548,-83.326912,1238.000000
800.134583,-81.173065,1206.000000
842.019226,-84.201912,1251.000000
829.471130,-81.778831,1215.000000
852.230774,-82.855759,1231.000000
868.980774,-83.326912,1238.000000
870.923035,-82.384598,1224.000000
906.490356,-84.605751,1257.000000
903.230774,-83.192291,1236.000000
904.009583,-82.182678,1221.000000
940.500000,-84.403831,1254.000000
953.317322,-84.471138,1255.000000
-1017.692322,-101.769218,1323.000000
-1008.009644,-102.076904,1327.000000
-978.000000,-100.307678,1304.000000
-955.836548,-99.307678,1291.000000
-956.576965,-100.692291,1309.000000
-940.384644,-100.307678,1304.000000
-924.288452,-99.923065,1299.000000
-892.144226,-97.769218,1271.000000
-876.461548,-97.384598,1266.000000
-868.384644,-97.846138,1272.000000
-877.019226,-100.230751,1303.000000
-816.057678,-94.615372,1230.000000
-841.500000,-98.999985,1287.000000
-793.048096,-94.692291,1231.000000
-802.153870,-97.230751,1264.000000
-764.375000,-94.076912,1223.000000
-785.230774,-98.153831,1276.000000
-736.615417,-93.538445,1216.000000
-751.153870,-96.923065,1260.000000
-731.413452,-95.923065,1247.000000
-707.307678,-94.307678,1226.000000
-689.846191,-93.538445,1216.000000
-675.923096,-93.230759,1212.000000
-686.192322,-96.307678,1252.000000
-661.769226,-94.538445,1229.000000
-621.923096,-90.461525,1176.000000
-628.788452,-93.153831,1211.000000
-633.961548,-95.692291,1244.000000
-614.000000,-94.461525,1228.000000
-603.173096,-94.615372,1230.000000
-620.192322,-99.230751,1290.000000
-585.644226,-95.615372,1243.000000
-637.384644,-106.230751,1381.000000
-545.019226,-92.769218,1206.000000
-555.538452,-96.615372,1256.000000
-532.644226,-94.692291,1231.000000
-531.807678,-96.692291,1257.000000
-508.557709,-94.615372,1230.000000
-498.750000,-94.999985,1235.000000
-495.153870,-96.615372,1256.000000
-476.153870,-95.230759,1238.000000
-457.875000,-93.923065,1221.000000
-444.307709,-93.538445,1216.000000
-436.884644,-94.461525,1228.000000
-421.961548,-93.769218,1219.000000
-419.663483,-95.923065,1247.000000
-422.384644,-99.384598,1292.000000
-365.538483,-88.615372,1152.000000
-378.769257,-94.692291,1231.000000
-377.663483,-97.461525,1267.000000
-379.326935,-101.153831,1315.000000
-337.682709,-93.153831,1211.000000
-330.076935,-94.307678,1226.000000
-325.557709,-96.461525,1254.000000
-309.500000,-95.230759,1238.000000
-300.721161,-96.230759,1251.000000
-289.846161,-96.615372,1256.000000
-267.596161,-93.076912,1210.000000
-281.346161,-102.307678,1330.000000
-251.192322,-95.692291,1244.000000
-240.769241,-96.307678,1252.000000
-214.298096,-90.230759,1173.000000
-214.615402,-95.384598,1240.000000
-204.163483,-96.076912,1249.000000
-186.615402,-93.307678,1213.000000
-181.442322,-96.769218,1258.000000
-163.961548,-93.692291,1218.000000
-142.125015,-87.461525,1137.000000
-135.115402,-90.076912,1171.000000
-128.721161,-93.615372,1217.000000
-123.653862,-98.923065,1286.000000
-108.259628,-96.230759,1251.000000
-93.153862,-93.153831,1211.000000
-72.086548,-82.384605,1071.000000
-60.807705,-81.076912,1054.000000
-41.442318,-66.307686,862.000000
-37.692318,-75.384605,980.000000
-27.750011,-73.999992,962.000000
-19.019241,-76.076912,989.000000
-8.750010,-69.999992,910.000000
-0.000012,-78.230759,1017.000000
9.346143,-74.769218,972.000000
17.961527,-71.846146,934.000000
26.826912,-71.538452,930.000000
36.538452,-73.076912,950.000000
47.451912,-75.923065,987.000000
55.269218,-73.692299,958.000000
64.884605,-74.153831,964.000000
69.923065,-69.923065,909.000000
81.086525,-72.076912,937.000000
91.346146,-73.076912,950.000000
102.067299,-74.230759,965.000000
113.769218,-75.846146,986.000000
117.124992,-72.076912,937.000000
119.538452,-68.307686,888.000000
142.644226,-76.076912,989.000000
145.846146,-72.923065,948.000000
154.634598,-72.769218,946.000000
160.961533,-71.538452,930.000000
177.576920,-74.769218,972.000000
183.846146,-73.538452,956.000000
191.624985,-72.999992,949.000000
212.596146,-77.307678,1005.000000
213.634598,-74.307678,966.000000
224.076920,-74.692299,971.000000
222.596146,-71.230759,926.000000
217.249985,-66.846146,869.000000
234.692291,-69.538452,904.000000
274.076904,-78.307678,1018.000000
259.884613,-71.692299,932.000000
278.653839,-74.307678,966.000000
290.326904,-74.923065,974.000000
316.615387,-79.153831,1029.000000
318.894226,-77.307678,1005.000000
317.769226,-74.769218,972.000000
325.096130,-74.307678,966.000000
362.076904,-80.461525,1046.000000
398.817291,-86.230759,1121.000000
447.596130,-94.230759,1225.000000
453.000000,-92.923065,1208.000000
473.076904,-94.615372,1230.000000
478.596130,-93.384598,1214.000000
495.923065,-94.461525,1228.000000
520.548035,-96.846138,1259.000000
525.461548,-95.538445,1242.000000
533.509583,-94.846138,1233.000000
524.134583,-91.153831,1185.000000
565.807678,-96.307678,1252.000000
568.615356,-94.769218,1232.000000
572.451904,-93.461525,1215.000000
605.288452,-96.846138,1259.000000
595.817322,-93.461525,1215.000000
629.000000,-96.769218,1258.000000
637.528809,-96.230759,1251.000000
628.788452,-93.153831,1211.000000
661.057678,-96.153831,1250.000000
658.000000,-93.999985,1222.000000
660.980774,-92.769218,1206.000000
695.442322,-95.923065,1247.000000
705.730774,-95.692291,1244.000000
724.615356,-96.615372,1256.000000
723.201904,-94.846138,1233.000000
742.211548,-95.769218,1245.000000
714.807678,-90.769218,1180.000000
758.153809,-94.769218,1232.000000
766.875000,-94.384598,1227.000000
819.288452,-99.307678,1291.000000
792.403809,-94.615372,1230.000000
799.653809,-94.076912,1223.000000
822.692322,-95.384598,1240.000000
807.019226,-92.230759,1199.000000
883.403809,-99.538445,1294.000000
837.692322,-93.076912,1210.000000
858.451904,-94.076912,1223.000000
865.942322,-93.615372,1217.000000
886.298035,-94.538445,1229.000000
918.576904,-96.692291,1257.000000
912.153809,-94.769218,1232.000000
934.500000,-95.846138,1246.000000
947.240356,-95.923065,1247.000000
-1019.230774,-114.663445,1325.000000
-983.701965,-112.067291,1295.000000
-970.500000,-111.980751,1294.000000
-975.086548,-113.971138,1317.000000
-954.384644,-113.019218,1306.000000
-936.057678,-112.326912,1298.000000
-926.423096,-112.673065,1302.000000
-880.913452,-108.605751,1255.000000
-888.230774,-111.028831,1283.000000
-881.355774,-111.721138,1291.000000
-870.288452,-111.894218,1293.000000
-837.951965,-109.298065,1263.000000
-815.346191,-107.913445,1247.000000
-829.125000,-111.374985,1287.000000
-789.461548,-107.653831,1244.000000
-784.375000,-108.605751,1255.000000
-788.923096,-110.942291,1282.000000
-740.855774,-105.836525,1223.000000
-746.980774,-108.432678,1253.000000
-746.076965,-110.076912,1272.000000
-715.961548,-107.394218,1241.000000
-703.461548,-107.307678,1240.000000
-683.730774,-106.096138,1226.000000
-675.230774,-106.615372,1232.000000
-677.923096,-108.951912,1259.000000
-622.980774,-101.942291,1178.000000
-653.711548,-108.951912,1259.000000
-633.451965,-107.567291,1243.000000
-617.000000,-106.788445,1234.000000
-610.528870,-107.740372,1245.000000
-586.057678,-105.490372,1219.000000
-588.942322,-108.173065,1250.000000
-559.384644,-104.884598,1212.000000
-550.442322,-105.403831,1218.000000
-560.403870,-109.644218,1267.000000
-517.932678,-103.586525,1197.000000
-523.346191,-107.048065,1237.000000
-513.519226,-107.480759,1242.000000
-507.634644,-108.778831,1257.000000
-467.951935,-102.721138,1187.000000
-479.230774,-107.826912,1246.000000
-466.500000,-107.653831,1244.000000
-452.346161,-107.134598,1238.000000
-427.990387,-104.105759,1203.000000
-421.615387,-105.403831,1218.000000
-421.682709,-108.432678,1253.000000
-405.384644,-107.307678,1240.000000
-366.490387,-99.951912,1155.000000
-396.307709,-111.461525,1288.000000
-343.086548,-99.605759,1151.000000
-350.480774,-105.144218,1215.000000
-343.259644,-106.528831,1231.000000
-332.500000,-106.874985,1235.000000
-317.769257,-105.923065,1224.000000
-309.250000,-107.048065,1237.000000
-277.644257,-99.951912,1155.000000
-284.307709,-106.615372,1232.000000
-254.105789,-99.432678,1149.000000
-261.038483,-106.788445,1234.000000
-252.000015,-107.999985,1248.000000
-212.500015,-95.624985,1105.000000
-213.567322,-101.163445,1169.000000
-207.173096,-103.586525,1197.000000
-205.144241,-108.605751,1255.000000
-177.230789,-99.692291,1152.000000
-170.480789,-102.288445,1182.000000
-152.653854,-98.134605,1134.000000
-146.000015,-101.076912,1168.000000
-134.538467,-100.903831,1166.000000
-128.932709,-105.490372,1219.000000
-120.384628,-108.346138,1252.000000
-101.769241,-101.769218,1176.000000
-85.076935,-95.711525,1106.000000
-63.740395,-81.951912,947.000000
-55.153858,-82.730759,956.000000
-45.384624,-81.692299,944.000000
-36.153858,-81.346146,940.000000
-27.346165,-82.038452,948.000000
-18.269241,-82.211525,950.000000
-8.500010,-76.499992,884.000000
-0.000011,-80.307678,928.000000
8.942297,-80.480759,930.000000
17.499990,-78.749992,910.000000
28.471142,-85.413452,987.000000
36.538452,-82.211525,950.000000
46.057682,-82.903831,958.000000
51.288452,-76.932686,889.000000
65.759605,-84.548065,977.000000
71.076912,-79.961525,924.000000
84.374992,-84.374992,975.000000
89.999992,-80.999992,936.000000
100.798065,-82.471146,953.000000
116.769218,-87.576912,1012.000000
117.874992,-81.605759,943.000000
128.557678,-82.644218,955.000000
136.298065,-81.778839,945.000000
149.846146,-84.288452,974.000000
153.490372,-81.259605,939.000000
170.480759,-85.240372,985.000000
172.096146,-81.519218,942.000000
176.346146,-79.355759,917.000000
180.721146,-77.451912,895.000000
193.134598,-79.009605,913.000000
224.471146,-87.836525,1015.000000
219.923065,-82.471146,953.000000
227.884598,-82.038452,948.000000
246.499985,-85.326912,986.000000
242.221146,-80.740372,933.000000
266.538452,-85.673065,990.000000
274.942291,-85.326912,986.000000
269.711517,-80.913452,935.000000
280.192291,-81.346146,940.000000
299.384613,-84.201912,973.000000
314.451904,-85.759605,991.000000
309.923065,-82.038452,948.000000
329.471130,-84.721146,979.000000
349.961517,-87.490372,1011.000000
413.048065,-100.471138,1161.000000
438.826904,-103.932678,1201.000000
463.125000,-106.874985,1235.000000
451.153839,-101.509605,1173.000000
462.826904,-101.596138,1174.000000
468.865356,-100.471138,1161.000000
461.423065,-96.576912,1116.000000
522.500000,-106.874985,1235.000000
508.413452,-101.682678,1175.000000
540.942322,-105.836525,1223.000000
558.125000,-106.874985,1235.000000
567.230774,-106.355759,1229.000000
583.759583,-107.221138,1239.000000
596.153809,-107.307678,1240.000000
599.250000,-105.749985,1222.000000
615.500000,-106.528831,1231.000000
600.836548,-102.028831,1179.000000
630.865356,-105.144218,1215.000000
649.951904,-106.355759,1229.000000
695.153809,-111.721138,1291.000000
688.384583,-108.692291,1256.000000
688.192322,-106.788445,1234.000000
688.144226,-104.971138,1213.000000
699.807678,-104.971138,1213.000000
722.028809,-106.528831,1231.000000
728.500000,-105.749985,1222.000000
734.798035,-104.971138,1213.000000
772.923035,-108.692291,1256.000000
751.250000,-104.019218,1202.000000
824.365356,-112.413445,1299.000000
800.134583,-107.480759,1242.000000
822.538452,-108.865372,1258.000000
831.317322,-108.432678,1253.000000
846.730774,-108.865372,1258.000000
835.615356,-105.923065,1224.000000
839.769226,-104.971138,1213.000000
859.855774,-106.009598,1225.000000
868.076904,-105.576912,1220.000000
906.490356,-108.778831,1257.000000
913.461548,-108.173065,1250.000000
915.855774,-107.048065,1237.000000
912.750000,-105.317291,1217.000000
943.442322,-107.480759,1242.000000
-1071.538452,-133.942291,1393.000000
-984.461548,-124.615372,1296.000000
-984.750000,-126.249985,1313.000000
-985.451965,-127.980751,1331.000000
-964.615417,-126.923065,1320.000000
-946.875000,-126.249985,1313.000000
-995.442322,-134.519211,1399.000000
-862.663452,-118.173065,1229.000000
-872.307678,-121.153831,1260.000000
-869.750000,-122.499985,1274.000000
-872.980774,-124.711525,1297.000000
-829.990417,-120.288445,1251.000000
-792.461548,-116.538445,1212.000000
-818.817322,-122.211525,1271.000000
-819.288452,-124.134598,1291.000000
-773.750000,-119.038445,1238.000000
-799.384644,-124.903831,1299.000000
-762.663452,-121.057678,1259.000000
-728.500000,-117.499985,1222.000000
-736.692322,-120.769218,1256.000000
-750.000000,-124.999985,1300.000000
-696.086548,-117.980759,1227.000000
-699.903870,-120.673065,1255.000000
-663.173096,-116.346138,1210.000000
-669.307678,-119.519218,1243.000000
-651.009644,-118.365372,1231.000000
-633.461548,-117.307678,1220.000000
-636.509644,-120.096138,1249.000000
-622.000000,-119.615372,1244.000000
-609.057678,-119.423065,1242.000000
-623.076965,-124.615372,1296.000000
-571.509644,-116.634598,1213.000000
-567.230774,-118.173065,1229.000000
-561.740417,-119.519218,1243.000000
-577.211548,-125.480751,1305.000000
-525.288452,-116.730759,1214.000000
-531.807678,-120.865372,1257.000000
-506.490387,-117.788445,1225.000000
-494.307709,-117.692291,1224.000000
-495.548096,-120.865372,1257.000000
-468.846161,-117.211525,1219.000000
-468.375000,-120.096138,1249.000000
-467.692322,-123.076912,1280.000000
-446.134644,-120.576912,1254.000000
-429.923096,-119.423065,1242.000000
-404.855774,-115.673065,1203.000000
-405.384644,-119.230759,1240.000000
-399.173096,-120.961525,1258.000000
-382.153870,-119.423065,1242.000000
-362.163483,-116.826912,1215.000000
-353.942322,-117.980759,1227.000000
-346.048096,-119.326912,1241.000000
-335.461548,-119.807678,1246.000000
-323.480774,-119.807678,1246.000000
-311.500000,-119.807678,1246.000000
-314.182709,-125.673065,1307.000000
-284.076935,-118.365372,1231.000000
-274.673096,-119.423065,1242.000000
-256.173096,-116.442291,1211.000000
-252.201935,-120.096138,1249.000000
-231.730789,-115.865372,1205.000000
-215.028854,-113.173065,1177.000000
-214.615402,-119.230759,1240.000000
-204.980789,-120.576912,1254.000000
-191.538483,-119.711525,1245.000000
-167.740402,-111.826912,1163.000000
-170.423096,-121.730751,1266.000000
-155.250015,-119.423065,1242.000000
-145.269241,-121.057678,1259.000000
-129.990402,-118.173065,1229.000000
-120.288475,-120.288445,1251.000000
-96.836548,-107.596138,1119.000000
-96.615402,-120.769218,1256.000000
-67.576935,-96.538452,1004.000000
-58.153858,-96.923065,1008.000000
-44.375011,-88.749992,923.000000
-37.923088,-94.807678,986.000000
-27.201935,-90.673065,943.000000
-18.750011,-93.749992,975.000000
-9.480781,-94.807678,986.000000
-0.000012,-100.865372,1049.000000
9.115374,-91.153831,948.000000
18.980759,-94.903831,987.000000
28.240374,-94.134605,979.000000
36.307682,-90.769218,944.000000
47.740372,-95.480759,993.000000
57.519218,-95.865372,997.000000
60.576912,-86.538452,900.000000
77.230759,-96.538452,1004.000000
79.874992,-88.749992,923.000000
90.480759,-90.480759,941.000000
105.346146,-95.769218,996.000000
117.115372,-97.596146,1015.000000
115.624992,-88.942299,925.000000
132.999985,-94.999992,988.000000
139.038452,-92.692299,964.000000
142.615372,-89.134605,927.000000
161.009598,-94.711525,985.000000
168.749985,-93.749992,975.000000
173.192291,-91.153831,948.000000
181.538452,-90.769218,944.000000
198.692291,-94.615372,984.000000
216.192291,-98.269218,1022.000000
217.173065,-94.423065,982.000000
236.307678,-98.461525,1024.000000
240.144226,-96.057678,999.000000
256.250000,-98.557678,1025.000000
256.759613,-95.096146,989.000000
262.230743,-93.653831,974.000000
271.317291,-93.557678,973.000000
287.307678,-95.769218,996.000000
304.932678,-98.365372,1023.000000
310.769226,-97.115372,1010.000000
313.500000,-94.999992,988.000000
323.980743,-95.288452,991.000000
343.269226,-98.076912,1020.000000
360.346130,-100.096146,1041.000000
403.442291,-109.038452,1134.000000
458.557678,-120.673065,1255.000000
469.125000,-120.288445,1251.000000
471.538452,-117.884598,1226.000000
477.019226,-116.346138,1210.000000
491.480743,-117.019218,1217.000000
499.461517,-116.153831,1208.000000
514.038452,-116.826912,1215.000000
532.644226,-118.365372,1231.000000
549.788452,-119.519218,1243.000000
557.221130,-118.557678,1233.000000
572.307678,-119.230759,1240.000000
572.923035,-116.923065,1216.000000
601.442322,-120.288445,1251.000000
602.682678,-118.173065,1229.000000
616.500000,-118.557678,1233.000000
612.557678,-115.576912,1202.000000
649.557678,-120.288445,1251.000000
661.057678,-120.192291,1250.000000
702.692322,-125.480751,1305.000000
677.423035,-118.846138,1236.000000
694.884583,-119.807678,1246.000000
702.326904,-119.038445,1238.000000
710.769226,-118.461525,1232.000000
714.990356,-117.211525,1219.000000
731.480774,-117.980759,1227.000000
713.596130,-113.269218,1178.000000
773.538452,-120.865372,1257.000000
774.375000,-119.134598,1239.000000
783.750000,-118.749985,1235.000000
794.336548,-118.557678,1233.000000
810.115356,-119.134598,1239.000000
797.480774,-115.576912,1202.000000
835.288452,-119.326912,1241.000000
852.000000,-119.999985,1248.000000
864.000000,-119.999985,1248.000000
861.961548,-118.076912,1228.000000
870.923035,-117.692291,1224.000000
897.836548,-119.711525,1245.000000
895.923035,-117.884598,1226.000000
925.480774,-120.192291,1250.000000
919.500000,-117.884598,1226.000000
964.711548,-122.115372,1270.000000
-1076.153809,-147.971130,1399.000000
-975.346191,-135.807678,1284.000000
-971.250000,-136.971146,1295.000000
-971.384644,-138.769211,1312.000000
-947.807678,-137.182678,1297.000000
-951.923096,-139.615372,1320.000000
-925.000000,-137.499985,1300.000000
-856.346191,-129.038452,1220.000000
-876.461548,-133.903839,1266.000000
-863.605774,-133.798065,1265.000000
-852.788452,-134.009598,1267.000000
-818.711548,-130.519211,1234.000000
-816.000000,-131.999985,1248.000000
-823.971191,-135.278839,1279.000000
-802.153870,-133.692291,1264.000000
-776.875000,-131.471146,1243.000000
-768.000000,-131.999985,1248.000000
-762.663452,-133.163452,1259.000000
-722.538452,-128.192291,1212.000000
-710.884644,-128.192291,1212.000000
-706.153870,-129.461517,1224.000000
-714.807678,-133.269211,1260.000000
-701.576965,-133.057678,1258.000000
-689.480774,-133.057678,1258.000000
-685.461548,-134.644211,1273.000000
-643.605774,-128.721146,1217.000000
-651.634644,-132.740372,1255.000000
-639.057678,-132.634598,1254.000000
-636.000000,-134.538452,1272.000000
-598.269226,-129.038452,1220.000000
-598.076965,-131.576904,1244.000000
-580.932678,-130.413452,1233.000000
-566.769226,-129.884598,1228.000000
-565.355774,-132.317291,1251.000000
-541.384644,-129.461517,1224.000000
-493.701935,-120.682678,1141.000000
-522.923096,-130.730759,1236.000000
-505.250000,-129.249985,1222.000000
-501.173096,-131.259598,1241.000000
-480.567322,-128.932678,1219.000000
-483.461548,-132.951904,1257.000000
-457.875000,-129.144211,1221.000000
-464.038483,-134.326904,1270.000000
-437.951935,-130.201904,1231.000000
-436.500000,-133.374985,1261.000000
-424.711548,-133.480759,1262.000000
-404.730774,-130.942291,1238.000000
-376.961548,-125.653831,1188.000000
-372.923096,-128.192291,1212.000000
-358.288483,-127.134605,1202.000000
-349.326935,-128.086517,1211.000000
-344.375000,-130.624985,1235.000000
-329.000000,-129.249985,1222.000000
-326.596161,-133.057678,1258.000000
-309.750000,-131.048065,1239.000000
-302.644257,-133.163452,1259.000000
-282.923096,-129.673065,1226.000000
-263.173096,-125.865372,1190.000000
-262.942322,-131.471146,1243.000000
-228.173096,-119.519218,1130.000000
-236.923096,-130.307678,1232.000000
-225.259628,-130.413452,1233.000000
-209.942322,-128.298065,1213.000000
-203.836548,-131.894211,1247.000000
-180.307709,-123.961525,1172.000000
-157.211548,-115.288452,1090.000000
-165.038483,-129.673065,1226.000000
-152.125015,-128.721146,1217.000000
-142.038483,-130.201904,1231.000000
-131.153854,-131.153839,1240.000000
-107.980782,-118.778831,1123.000000
-107.653862,-131.576904,1244.000000
-91.538475,-125.865372,1190.000000
-67.778854,-106.509605,1007.000000
-59.019241,-108.201912,1023.000000
-43.894241,-96.567299,913.000000
-36.923088,-101.538452,960.000000
-28.096165,-103.019218,974.000000
-19.000011,-104.499992,988.000000
-8.836549,-97.201912,919.000000
-0.000011,-100.798065,953.000000
8.874990,-97.624992,923.000000
18.423065,-101.326912,958.000000
27.201912,-99.740372,943.000000
35.499989,-97.624992,923.000000
43.894218,-96.567299,913.000000
56.423065,-103.442299,978.000000
64.413452,-101.221146,957.000000
67.384605,-92.653839,876.000000
81.519218,-99.634605,942.000000
90.673065,-99.740372,943.000000
99.211525,-99.211525,938.000000
111.346146,-102.067299,965.000000
112.624992,-95.298065,901.000000
132.326904,-103.971146,983.000000
129.807678,-95.192299,900.000000
146.769226,-100.903831,954.000000
157.576920,-101.961525,964.000000
159.057678,-97.201912,919.000000
159.307678,-92.230759,872.000000
180.961533,-99.528839,941.000000
190.413452,-99.740372,943.000000
220.634598,-110.317299,1043.000000
212.307678,-101.538452,960.000000
219.923065,-100.798065,953.000000
209.134613,-92.019218,870.000000
240.749985,-101.855759,963.000000
237.288452,-96.673065,914.000000
264.923065,-104.076912,984.000000
255.701920,-96.990372,917.000000
296.826904,-108.836525,1029.000000
291.221130,-103.336525,977.000000
298.769226,-102.701912,971.000000
302.711517,-100.903831,954.000000
323.000000,-104.499992,988.000000
317.355743,-99.740372,943.000000
351.692291,-107.461525,1016.000000
388.855743,-115.605759,1093.000000
428.230743,-123.961525,1172.000000
426.000000,-120.153831,1136.000000
482.692291,-132.740372,1255.000000
444.692291,-119.307678,1128.000000
465.230743,-121.846138,1152.000000
482.096130,-123.326912,1166.000000
514.461548,-128.615372,1216.000000
489.375000,-119.624985,1131.000000
551.557678,-131.894211,1247.000000
550.442322,-128.826904,1218.000000
568.153809,-130.201904,1231.000000
578.105774,-129.778839,1227.000000
571.634583,-125.759605,1189.000000
611.019226,-131.788452,1246.000000
614.000000,-129.884598,1228.000000
594.211548,-123.326912,1166.000000
628.788452,-128.086517,1211.000000
639.903809,-127.980759,1210.000000
669.846130,-131.576904,1244.000000
624.259583,-120.471138,1139.000000
694.326904,-131.682678,1245.000000
688.711548,-128.403839,1214.000000
720.576904,-132.105759,1249.000000
709.125000,-127.874985,1209.000000
724.326904,-128.509598,1215.000000
740.855774,-129.355759,1223.000000
759.384583,-130.519211,1234.000000
770.625000,-130.413452,1233.000000
784.384583,-130.730759,1236.000000
797.557678,-130.942291,1238.000000
797.692322,-129.038452,1220.000000
818.711548,-130.519211,1234.000000
847.403809,-133.163452,1259.000000
857.461548,-132.846146,1256.000000
865.384583,-132.211517,1250.000000
855.644226,-128.932678,1219.000000
863.096130,-128.298065,1213.000000
902.884583,-132.423065,1252.000000
889.346130,-128.721146,1217.000000
932.884583,-133.269211,1260.000000
948.750000,-133.798065,1265.000000
957.875000,-133.374985,1261.000000
-1080.000000,-161.999985,1404.000000
-975.346191,-148.153824,1284.000000
-990.000000,-152.307678,1320.000000
-972.865417,-151.615372,1314.000000
-983.615417,-155.307678,1346.000000
-942.548096,-150.807678,1307.000000
-944.211548,-153.115372,1327.000000
-859.855774,-141.346146,1225.000000
-895.846191,-149.307678,1294.000000
-867.019226,-146.538452,1270.000000
-864.230774,-148.153824,1284.000000
-847.240417,-147.346146,1277.000000
-848.038452,-149.653824,1297.000000
-816.240417,-146.192291,1267.000000
-807.865417,-146.884598,1273.000000
-797.500000,-147.230759,1276.000000
-793.230774,-148.730759,1289.000000
-755.394226,-143.884598,1247.000000
-748.769226,-144.923065,1256.000000
-699.740417,-137.653839,1193.000000
-737.307678,-147.461517,1278.000000
-712.538452,-144.923065,1256.000000
-706.596191,-146.192291,1267.000000
-669.201965,-140.884598,1221.000000
-676.846191,-145.038452,1257.000000
-643.076965,-140.307678,1216.000000
-652.153870,-144.923065,1256.000000
-644.663452,-145.961517,1265.000000
-633.500000,-146.192291,1267.000000
-601.701965,-141.576904,1227.000000
-593.269226,-142.384598,1234.000000
-587.528870,-143.884598,1247.000000
-564.000000,-140.999985,1222.000000
-565.807678,-144.461517,1252.000000
-578.980774,-151.038452,1309.000000
-535.673096,-142.846146,1238.000000
-528.846191,-144.230759,1250.000000
-514.346191,-143.538452,1244.000000
-498.346161,-142.384598,1234.000000
-490.028870,-143.423065,1243.000000
-467.307709,-140.192291,1215.000000
-469.875000,-144.576904,1253.000000
-480.480774,-151.730759,1315.000000
-432.971161,-140.423065,1217.000000
-421.615387,-140.538452,1218.000000
-423.028870,-145.038452,1257.000000
-415.519257,-146.653839,1271.000000
-379.182709,-137.884598,1195.000000
-373.846161,-140.192291,1215.000000
-366.336548,-141.807678,1229.000000
-373.846161,-149.538452,1296.000000
-341.865387,-141.461517,1226.000000
-348.384644,-149.307678,1294.000000
-322.442322,-143.307678,1242.000000
-309.500000,-142.846146,1238.000000
-302.644257,-145.269211,1259.000000
-287.076935,-143.538452,1244.000000
-271.134644,-141.461517,1226.000000
-280.500000,-152.999985,1326.000000
-247.557709,-141.461517,1226.000000
-239.038483,-143.423065,1243.000000
-227.269241,-143.538452,1244.000000
-217.730789,-145.153839,1258.000000
-205.307709,-144.923065,1256.000000
-192.615402,-144.461517,1252.000000
-181.442322,-145.153839,1258.000000
-166.250015,-142.499985,1235.000000
-152.875015,-141.115372,1223.000000
-137.884628,-137.884598,1195.000000
-129.567322,-141.346146,1225.000000
-115.192322,-138.230759,1198.000000
-108.000015,-143.999985,1248.000000
-93.923088,-140.884598,1221.000000
-67.846169,-116.307678,1008.000000
-56.250011,-112.499992,975.000000
-44.759624,-107.423065,931.000000
-35.076935,-105.230759,912.000000
-28.471165,-113.884605,987.000000
-18.788473,-112.730759,977.000000
-8.913472,-106.961525,927.000000
-0.000011,-112.730759,977.000000
9.298066,-111.576912,967.000000
17.730759,-106.384605,922.000000
26.423067,-105.692299,916.000000
36.807682,-110.423065,957.000000
43.701912,-104.884605,909.000000
56.019218,-112.038452,971.000000
64.346146,-110.307678,956.000000
72.999992,-109.499992,949.000000
83.596146,-111.461525,966.000000
91.634605,-109.961525,953.000000
95.721146,-104.423065,905.000000
114.230759,-114.230759,990.000000
118.624992,-109.499992,949.000000
131.115372,-112.384605,974.000000
134.567291,-107.653839,933.000000
138.153839,-103.615372,898.000000
149.240372,-105.346146,913.000000
169.269226,-112.846146,978.000000
175.201920,-110.653831,959.000000
182.692291,-109.615372,950.000000
192.634598,-110.076912,954.000000
198.846146,-108.461525,940.000000
214.298065,-111.807678,969.000000
203.307678,-101.653839,881.000000
223.557678,-107.307678,930.000000
248.249985,-114.576912,993.000000
260.913452,-115.961525,1005.000000
267.346130,-114.576912,993.000000
276.615387,-114.461525,992.000000
284.423065,-113.769218,986.000000
288.240387,-111.576912,967.000000
316.307678,-118.615372,1028.000000
313.182678,-113.884605,987.000000
329.538452,-116.307678,1008.000000
328.125000,-112.499992,975.000000
341.307678,-113.769218,986.000000
411.269226,-133.384598,1156.000000
459.288452,-145.038452,1257.000000
452.625000,-139.269211,1207.000000
477.692291,-143.307678,1242.000000
463.615356,-135.692291,1176.000000
523.788452,-149.653824,1297.000000
511.038452,-142.615372,1236.000000
522.500000,-142.499985,1235.000000
530.048035,-141.346146,1225.000000
526.788452,-137.423065,1191.000000
535.076904,-136.615372,1184.000000
570.923035,-142.730759,1237.000000
583.288452,-142.846146,1238.000000
597.596130,-143.423065,1243.000000
617.394226,-145.269211,1259.000000
632.500000,-145.961517,1265.000000
613.576904,-138.923065,1204.000000
631.903809,-140.423065,1217.000000
654.182678,-142.730759,1237.000000
674.153809,-144.461517,1252.000000
663.721130,-139.730759,1211.000000
719.980774,-148.961517,1291.000000
702.894226,-142.961517,1239.000000
698.653809,-139.730759,1211.000000
719.682678,-141.576904,1227.000000
728.500000,-140.999985,1222.000000
754.788452,-143.769211,1246.000000
792.615356,-148.615372,1288.000000
763.750000,-140.999985,1222.000000
784.384583,-142.615372,1236.000000
786.605774,-140.884598,1221.000000
799.000000,-140.999985,1222.000000
811.413452,-141.115372,1223.000000
842.692322,-144.461517,1252.000000
829.471130,-140.192291,1215.000000
850.846130,-141.807678,1229.000000
878.105774,-144.346146,1251.000000
889.423035,-144.230759,1250.000000
878.365356,-140.538452,1218.000000
890.076904,-140.538452,1218.000000
919.557678,-143.307678,1242.000000
925.500000,-142.384598,1234.000000
953.317322,-144.807678,1255.000000
-1106.923096,-179.874985,1439.000000
-970.028870,-159.624985,1277.000000
-954.000000,-158.999985,1272.000000
-992.115417,-167.499985,1340.000000
-942.692322,-161.249985,1290.000000
-945.432678,-163.874985,1311.000000
-927.846191,-162.999985,1304.000000
-867.576965,-154.499985,1236.000000
-886.846191,-160.124985,1281.000000
-858.826965,-157.249985,1258.000000
-872.980774,-162.124985,1297.000000
-849.230774,-159.999985,1280.000000
-838.884644,-160.374985,1283.000000
-793.692322,-153.999985,1232.000000
-804.692322,-158.499985,1268.000000
-808.750000,-161.749985,1294.000000
-793.846191,-161.249985,1290.000000
-717.836548,-148.124985,1185.000000
-724.326965,-151.874985,1215.000000
-720.855774,-153.624985,1229.000000
-743.076965,-160.999985,1288.000000
-704.596191,-155.249985,1242.000000
-685.961548,-153.749985,1230.000000
-678.519226,-154.749985,1238.000000
-662.846191,-153.874985,1231.000000
-645.192322,-152.499985,1220.000000
-634.500000,-152.749985,1222.000000
-636.000000,-155.999985,1248.000000
-622.500000,-155.624985,1245.000000
-602.192322,-153.499985,1228.000000
-621.153870,-161.499985,1292.000000
-570.567322,-151.374985,1211.000000
-577.846191,-156.499985,1252.000000
-564.451965,-156.124985,1249.000000
-532.980774,-150.624985,1205.000000
-517.932678,-149.624985,1197.000000
-531.807678,-157.124985,1257.000000
-516.413452,-156.124985,1249.000000
-489.461548,-151.499985,1212.000000
-479.778870,-152.124985,1217.000000
-479.615387,-155.874985,1247.000000
-471.375000,-157.124985,1257.000000
-443.211548,-151.624985,1213.000000
-426.211548,-149.749985,1198.000000
-395.653870,-142.874985,1143.000000
-412.259644,-153.124985,1225.000000
-403.750000,-154.374985,1235.000000
-371.250000,-146.249985,1170.000000
-395.384644,-160.624985,1285.000000
-365.442322,-153.249985,1226.000000
-360.576935,-156.249985,1250.000000
-340.471161,-152.624985,1221.000000
-328.730774,-152.624985,1221.000000
-312.576935,-150.499985,1204.000000
-323.750000,-161.874985,1295.000000
-281.490387,-146.374985,1171.000000
-267.000000,-144.624985,1157.000000
-267.596161,-151.249985,1210.000000
-266.326935,-157.374985,1259.000000
-237.057709,-146.749985,1174.000000
-225.576935,-146.624985,1173.000000
-205.163467,-140.374985,1123.000000
-213.230789,-153.999985,1232.000000
-183.730789,-140.499985,1124.000000
-191.076935,-155.249985,1242.000000
-172.644241,-149.624985,1197.000000
-157.230789,-145.999985,1168.000000
-142.875015,-142.874985,1143.000000
-144.346161,-156.374985,1251.000000
-128.192322,-151.499985,1212.000000
-104.807701,-136.249985,1090.000000
-98.653862,-142.499985,1140.000000
-85.230782,-138.499985,1108.000000
-66.971169,-124.374992,995.000000
-57.000011,-123.499992,988.000000
-45.000011,-116.999992,936.000000
-36.692318,-119.249992,954.000000
-27.461550,-118.999992,952.000000
-18.173088,-118.124992,945.000000
-9.576935,-124.499992,996.000000
-0.000011,-118.249992,946.000000
9.432681,-122.624992,981.000000
18.730759,-121.749992,974.000000
28.471142,-123.374992,987.000000
34.692299,-112.749992,902.000000
46.923065,-121.999992,976.000000
56.596142,-122.624992,981.000000
62.730759,-116.499992,932.000000
72.769218,-118.249992,946.000000
81.432678,-117.624992,941.000000
97.115372,-126.249985,1010.000000
96.990372,-114.624992,917.000000
116.076912,-125.749985,1006.000000
117.999992,-117.999992,944.000000
133.403839,-123.874992,991.000000
138.894226,-120.374992,963.000000
141.846146,-115.249992,922.000000
153.817291,-117.624992,941.000000
168.230759,-121.499992,972.000000
184.884598,-126.499985,1012.000000
178.846146,-116.249992,930.000000
187.990372,-116.374992,931.000000
203.288452,-120.124992,961.000000
206.999985,-116.999992,936.000000
206.999985,-112.124992,897.000000
228.605759,-118.874992,951.000000
244.499985,-122.249992,978.000000
254.682678,-122.624992,981.000000
250.923065,-116.499992,932.000000
263.788452,-118.249992,946.000000
262.500000,-113.749992,910.000000
286.750000,-120.249992,962.000000
305.538452,-124.124992,993.000000
314.769226,-123.999992,992.000000
312.211517,-119.374992,955.000000
326.442291,-121.249992,970.000000
347.192291,-125.374985,1003.000000
392.769226,-137.999985,1104.000000
422.750000,-144.624985,1157.000000
455.250000,-151.749985,1214.000000
477.692291,-155.249985,1242.000000
454.548065,-144.124985,1153.000000
497.134613,-153.874985,1231.000000
481.682678,-145.624985,1165.000000
514.461548,-151.999985,1216.000000
508.846130,-146.999985,1176.000000
548.903809,-155.124985,1241.000000
549.086548,-151.874985,1215.000000
566.769226,-153.499985,1228.000000
582.817322,-154.624985,1237.000000
597.596130,-155.374985,1243.000000
604.153809,-153.999985,1232.000000
625.500000,-156.374985,1251.000000
616.634583,-151.249985,1210.000000
638.653809,-153.749985,1230.000000
599.182678,-141.624985,1133.000000
647.769226,-150.374985,1203.000000
651.663452,-148.624985,1189.000000
677.038452,-151.749985,1214.000000
688.711548,-151.749985,1214.000000
695.769226,-150.749985,1206.000000
665.134583,-141.749985,1134.000000
728.500000,-152.749985,1222.000000
750.548035,-154.874985,1239.000000
770.461548,-156.499985,1252.000000
786.875000,-157.374985,1259.000000
782.480774,-154.124985,1233.000000
778.875000,-151.124985,1209.000000
811.423035,-155.124985,1241.000000
831.317322,-156.624985,1253.000000
818.461548,-151.999985,1216.000000
836.980774,-153.249985,1226.000000
846.692322,-152.874985,1223.000000
868.278809,-154.624985,1237.000000
873.057678,-153.374985,1227.000000
895.673035,-155.249985,1242.000000
898.115356,-153.624985,1229.000000
920.298035,-155.374985,1243.000000
912.000000,-151.999985,1216.000000
949.519226,-156.249985,1250.000000
-1076.153809,-188.326904,1399.000000
-971.548096,-172.173065,1279.000000
-978.750000,-175.673065,1305.000000
-973.605774,-177.019211,1315.000000
-967.538452,-178.230759,1324.000000
-959.134644,-179.038452,1330.000000
-976.230774,-184.692291,1372.000000
-885.125000,-169.749985,1261.000000
-911.769226,-177.288452,1317.000000
-867.019226,-170.961517,1270.000000
-889.134644,-177.826904,1321.000000
-839.942322,-170.423065,1266.000000
-850.653870,-175.134598,1301.000000
-788.538452,-164.769211,1224.000000
-788.826965,-167.326904,1243.000000
-796.875000,-171.634598,1275.000000
-786.461548,-172.038452,1278.000000
-737.826965,-163.961517,1218.000000
-751.750000,-169.749985,1261.000000
-744.317322,-170.826904,1269.000000
-707.884644,-165.173065,1227.000000
-690.413452,-163.826904,1217.000000
-684.288452,-165.173065,1227.000000
-698.798096,-171.634598,1275.000000
-688.153870,-172.038452,1278.000000
-636.201965,-161.942291,1203.000000
-671.365417,-174.057678,1293.000000
-625.298096,-165.173065,1227.000000
-649.500000,-174.865372,1299.000000
-611.019226,-167.730759,1246.000000
-600.480774,-168.134598,1249.000000
-580.461548,-165.846146,1232.000000
-596.769226,-174.057678,1293.000000
-558.576965,-166.384598,1236.000000
-554.211548,-168.673065,1253.000000
-536.538452,-166.923065,1240.000000
-522.500000,-166.249985,1235.000000
-515.173096,-167.730759,1246.000000
-497.942322,-165.980759,1233.000000
-480.567322,-164.096146,1219.000000
-481.153870,-168.403839,1251.000000
-456.375000,-163.826904,1217.000000
-460.019257,-169.480759,1259.000000
-440.798096,-166.788452,1239.000000
-433.038483,-168.403839,1251.000000
-426.730774,-170.692291,1268.000000
-410.615387,-169.076904,1256.000000
-400.125000,-169.749985,1261.000000
-374.769257,-163.961517,1218.000000
-365.442322,-165.038452,1226.000000
-362.019257,-168.942291,1255.000000
-359.711548,-173.653824,1290.000000
-327.653870,-163.826904,1217.000000
-324.000000,-167.999985,1248.000000
-311.500000,-167.730759,1246.000000
-303.846161,-170.153839,1264.000000
-289.153870,-168.673065,1253.000000
-266.711548,-162.346146,1206.000000
-260.826935,-165.980759,1233.000000
-250.788483,-167.192291,1242.000000
-234.038483,-163.826904,1217.000000
-225.625015,-166.249985,1235.000000
-208.038483,-161.807678,1202.000000
-205.144241,-168.942291,1255.000000
-192.461548,-168.403839,1251.000000
-177.115402,-165.307678,1228.000000
-167.461548,-167.461517,1244.000000
-155.875015,-167.865372,1247.000000
-133.615402,-155.884598,1158.000000
-129.673096,-165.038452,1226.000000
-121.057709,-169.480759,1259.000000
-104.278862,-162.211517,1205.000000
-92.076935,-161.134598,1197.000000
-65.288475,-130.576920,970.000000
-58.326935,-136.096146,1011.000000
-47.163471,-132.057678,981.000000
-37.000011,-129.499985,962.000000
-29.509626,-137.711533,1023.000000
-17.615395,-123.307678,916.000000
-9.663473,-135.288452,1005.000000
-0.000011,-128.557678,955.000000
8.749990,-122.499992,910.000000
18.826912,-131.788452,979.000000
27.115374,-126.538452,940.000000
37.423065,-130.980759,973.000000
46.923065,-131.384598,976.000000
54.173065,-126.403839,939.000000
65.557678,-131.115372,974.000000
78.846146,-137.980759,1025.000000
83.249992,-129.499985,962.000000
92.307678,-129.230759,960.000000
103.653831,-131.923065,980.000000
109.730759,-128.019226,951.000000
119.499992,-128.692291,956.000000
135.019226,-135.019226,1003.000000
140.192291,-130.846146,972.000000
155.230759,-135.826904,1009.000000
149.894226,-123.442299,917.000000
168.403839,-130.980759,973.000000
175.567291,-129.365372,961.000000
195.769226,-137.038452,1018.000000
184.153839,-122.769218,912.000000
204.557678,-130.173065,967.000000
211.644226,-128.826920,957.000000
227.538452,-132.730759,986.000000
237.259598,-132.865372,987.000000
240.249985,-129.365372,961.000000
241.961533,-125.461525,932.000000
260.346130,-130.173065,967.000000
262.115387,-126.538452,940.000000
289.038452,-134.884598,1002.000000
290.326904,-131.115372,974.000000
278.153839,-121.692299,904.000000
295.096130,-125.192299,930.000000
294.557678,-121.288452,901.000000
329.807678,-131.923065,980.000000
359.653839,-139.865372,1039.000000
445.778839,-168.673065,1253.000000
457.826904,-168.673065,1253.000000
472.125000,-169.480759,1259.000000
475.000000,-166.249985,1235.000000
487.269226,-166.384598,1236.000000
505.615356,-168.538452,1252.000000
505.250000,-164.499985,1222.000000
537.307678,-170.961517,1270.000000
531.778809,-165.442291,1229.000000
499.365356,-151.980759,1129.000000
564.451904,-168.134598,1249.000000
577.384583,-168.403839,1251.000000
580.932678,-165.980759,1233.000000
596.153809,-166.923065,1240.000000
598.759583,-164.365372,1221.000000
624.000000,-167.999985,1248.000000
613.067322,-161.942291,1203.000000
633.461548,-164.230759,1220.000000
656.298035,-167.057678,1241.000000
675.230774,-168.807678,1254.000000
664.817322,-163.288452,1213.000000
711.057678,-171.634598,1275.000000
706.865356,-167.730759,1246.000000
724.038452,-168.942291,1255.000000
725.548035,-166.519211,1237.000000
770.230774,-173.923065,1292.000000
749.942322,-166.653839,1238.000000
760.000000,-166.249985,1235.000000
765.000000,-164.769211,1224.000000
793.903809,-168.403839,1251.000000
798.846130,-166.923065,1240.000000
811.423035,-167.057678,1241.000000
833.307678,-169.076904,1256.000000
817.115356,-163.423065,1214.000000
844.490356,-166.519211,1237.000000
838.384583,-163.019211,1211.000000
871.086548,-167.057678,1241.000000
892.980774,-168.942291,1255.000000
895.673035,-167.192291,1242.000000
932.461548,-171.769211,1276.000000
900.307678,-163.692291,1216.000000
908.250000,-163.019211,1211.000000
957.115356,-169.615372,1260.000000
-1083.076904,-203.076904,1408.000000
-1019.403870,-193.557678,1342.000000
-972.000000,-186.923065,1296.000000
-959.538452,-186.923065,1296.000000
-959.500000,-189.374985,1313.000000
-895.673096,-179.134598,1242.000000
-951.326965,-192.836517,1337.000000
-890.740417,-183.028839,1269.000000
-882.692322,-183.894211,1275.000000
-850.634644,-179.711517,1246.000000
-836.634644,-179.278839,1243.000000
-837.951965,-182.163452,1263.000000
-834.961548,-184.182678,1277.000000
-822.038452,-184.038452,1276.000000
-801.519226,-182.163452,1263.000000
-791.250000,-182.596146,1266.000000
-788.923096,-184.903824,1282.000000
-759.028870,-180.721146,1253.000000
-750.557678,-181.586517,1259.000000
-740.798096,-182.163452,1263.000000
-726.923096,-181.730759,1260.000000
-688.711548,-175.096146,1214.000000
-693.769226,-179.423065,1244.000000
-671.942322,-176.826904,1226.000000
-689.769226,-184.759598,1281.000000
-629.855774,-171.778839,1191.000000
-637.096191,-176.971146,1227.000000
-644.153870,-182.307678,1264.000000
-629.500000,-181.586517,1259.000000
-599.250000,-176.249985,1222.000000
-605.769226,-181.730759,1260.000000
-582.817322,-178.413452,1237.000000
-588.923096,-184.038452,1276.000000
-565.355774,-180.432678,1251.000000
-560.846191,-182.884598,1268.000000
-525.288452,-175.096146,1214.000000
-525.461548,-179.134598,1242.000000
-491.192322,-171.346146,1188.000000
-503.192322,-179.711517,1246.000000
-486.875000,-178.124985,1235.000000
-467.307709,-175.240372,1215.000000
-464.250000,-178.557678,1238.000000
-464.403870,-183.317291,1271.000000
-439.375000,-178.124985,1235.000000
-426.461548,-177.692291,1232.000000
-418.653870,-179.423065,1244.000000
-408.326935,-180.144211,1249.000000
-393.144257,-178.701904,1239.000000
-380.307709,-178.269211,1236.000000
-366.336548,-177.259598,1229.000000
-348.750000,-174.374985,1209.000000
-341.586548,-176.682678,1225.000000
-329.269257,-176.394211,1223.000000
-314.653870,-174.807678,1212.000000
-312.250000,-180.144211,1249.000000
-285.336548,-171.201904,1187.000000
-279.923096,-174.951904,1213.000000
-274.894257,-179.278839,1243.000000
-264.846161,-180.576904,1252.000000
-237.865402,-169.903839,1178.000000
-231.346161,-173.509598,1203.000000
-214.480789,-169.326904,1174.000000
-217.557709,-181.298065,1257.000000
-191.576935,-169.038452,1172.000000
-192.461548,-180.432678,1251.000000
-180.865402,-180.865372,1254.000000
-165.711548,-177.548065,1231.000000
-141.375015,-163.124985,1131.000000
-145.269241,-181.586517,1259.000000
-118.884628,-162.115372,1124.000000
-118.750015,-178.124985,1235.000000
-107.048088,-178.413452,1237.000000
-86.461548,-162.115372,1124.000000
-66.971169,-143.509598,995.000000
-57.692318,-144.230759,1000.000000
-45.913471,-137.740372,955.000000
-37.230782,-139.615372,968.000000
-26.855780,-134.278839,931.000000
-18.365396,-137.740372,955.000000
-9.096165,-136.442291,946.000000
-0.000011,-132.692291,920.000000
9.336527,-140.048065,971.000000
18.365374,-137.740372,955.000000
26.567297,-132.836533,921.000000
36.461529,-136.730759,948.000000
42.644222,-127.932686,887.000000
53.365376,-133.413452,925.000000
61.182682,-131.105759,909.000000
67.846146,-127.211525,882.000000
80.048065,-133.413452,925.000000
92.692299,-139.038452,964.000000
93.711525,-127.788452,886.000000
112.846146,-141.057678,978.000000
119.749992,-138.173065,958.000000
140.942291,-151.009598,1047.000000
138.749985,-138.749985,962.000000
146.769226,-137.596146,954.000000
160.355759,-141.490372,981.000000
149.711533,-124.759605,865.000000
177.942291,-140.480759,974.000000
181.923065,-136.442291,946.000000
189.403839,-135.288452,938.000000
204.769226,-139.615372,968.000000
208.105759,-135.721146,941.000000
218.999985,-136.874985,949.000000
217.067291,-130.240372,903.000000
235.749985,-136.009598,943.000000
239.105759,-132.836533,921.000000
260.076904,-139.326920,966.000000
256.538452,-132.692291,920.000000
282.692291,-141.346146,980.000000
284.663452,-137.740372,955.000000
304.615387,-142.788452,990.000000
326.192291,-148.269226,1028.000000
322.673065,-142.355759,987.000000
339.903839,-145.673065,1010.000000
362.769226,-151.153839,1048.000000
401.307678,-162.692291,1128.000000
442.846130,-174.807678,1212.000000
435.375000,-167.451904,1161.000000
473.076904,-177.403839,1230.000000
480.961517,-175.961517,1220.000000
495.519226,-176.971146,1227.000000
484.576904,-169.038452,1172.000000
527.153809,-179.711517,1246.000000
526.153809,-175.384598,1216.000000
515.288452,-168.028839,1165.000000
530.105774,-169.182678,1173.000000
571.846130,-178.701904,1239.000000
577.163452,-176.682678,1225.000000
584.134583,-175.240372,1215.000000
572.769226,-168.461533,1168.000000
607.000000,-175.096146,1214.000000
628.865356,-177.980759,1234.000000
634.500000,-176.249985,1222.000000
630.384583,-171.923065,1192.000000
703.769226,-188.509598,1307.000000
690.028809,-181.586517,1259.000000
676.480774,-174.951904,1213.000000
690.980774,-175.673065,1218.000000
711.923035,-177.980759,1234.000000
725.548035,-178.413452,1237.000000
749.365356,-181.298065,1257.000000
736.009583,-175.240372,1215.000000
769.846130,-180.432678,1251.000000
781.250000,-180.288452,1250.000000
