0,0,0,0,0,0,0,0,0,0,0,0,0,0,0,0,0,0,0,0,0,0,0,0,0,0,0,0,0,0,0,0,0,0,0,0,0,0,0,0,0,0,0,0,0,0,0,0,0,0,0,0,0,0,0,0,0,0,0,0,0,0,0,0,0,0,0,0,0,0,0,0,0,0,0,0,0,0,0,0,0,0,0,0,0,0,0,0,0,0,0,0,0,0,0,0,0,0,0,0,0,0,0,0,0,0,0,0,0,0,0,0,0,0,0,0,0,0,0,0,0,0,0,0,0,0,0,0,0,0,0,0,0,0,0,0,0,0,0,0,0,0,0,0,0,0,0,0,0,0,0,0,0,0,0,0,0,0,0,0,0,0,0,0,0,0,0,0,0,0,0,0,0,0,0,0,0,0,0,0,0,0,0,0,0,0,0,0,0,0,0,0,0,0,0,0,0,0,0,0,0,0,0,0,0,0,0,0,0,0,0,0,0,0,0,0,0,0,0,0,0,0,0,0,0,0,0,0,0,0,0,0,0,0,0,0,0,0,0,0,0,0,0,0,0,0,0,0,0,0,0,0,0,0,0,0,0,0,0,0,0,0,0,0,0,0,0,0,0,0,0,0,0,0,0,0,0,0,0,0,0,0,0,0,1967,1967,1967,1976,1980,1984,1990,1990,1993,1997,2001,2004,2004,2008,2012,2015,2018,2018,2021,2025,2028,2031,2035,2035,2038,2041,2045,2048,2048,2051,2054,2058,2061,2061,2065,2069,2073,2078,2078,2082,2085,2089,2092,2092,2095,2098,2101,2103,2103,2106,2109,2113,2116,2116,2120,2130,2132,2134,2137,2137,2140,2144,2149,2156,2156,2162,2167,2170,2173,2173,2176,2178,2181,2184,2184,2187,2190,2193,2197,2197,2202,2207,2212,2216,2216,2220,2224,2229,2233,2233,2237,2240,2244,2247,2251,2251,2256,2260,2265,2270,2270,2279,2285,2291,2296,2296,2300,2303,2306,2308,2308,2312,2315,2319,2322,2322,2326,2330,2333,2337,2337,2342,2348,2356,2362,2368,2368,2373,2376,2380,2383,2383,2387,2391,2396,2400,2400,2404,2408,2413,2417,2417,2423,2429,2436,2443,2443,2447,2451,2459,2463,2463,2468,2472,2479,2486,2493,2493,2500,2505,2509,2513,2513,2517,2521,2524,2528,2528,2531,2534,2540,2563,2563,2573,2575,2578,2580,2580,2581,2583,2585,2587,2590,2590,2593,2597,2604,2614,2614,2625,2632,2637,2641,2641,2647,2658,2675,2680,2680,2684,2688,2692,2695,2695,2700,2704,2709,2713,2713,2718,2725,2739,2746,2751,2751,2754,2759,2766,2777,2777,2790,2797,2801,2804,2804,2809,2817,2829,2836,2836,2844,2852,2861,2866,2866,2869,2871,2874,2878,2885,2885,2903,2912,2916,2921,2921,2927,2939,2952,2959,2959,2962,2964,2966,2967,2967,2969,2970,2971,2974,2974,2996,3029,3040,3045,3053,3053,3063,3073,3079,3083,3083,3087,3092,3109,3129,3129,3134,3138,3142,3150,3150,3163,3170,3181,3209,3209,3212,3216,3221,3225,3229,3229,3233,3241,3260,3278,3278,3289,3293,3298,3303,3303,3309,3319,3331,3341,3341,3348,3353,3357,3363,3363,3372,3384,3399,3409,3415,3415,3422,3437,3452,3459,3459,3464,3476,3493,3500,3500,3506,3511,3518,3536,3536,3553,3572,3580,3587,3587,3595,3604,3615,3634,3641,3641,3647,3654,3663,3671,3671,3679,3700,3733,3738,3738,3742,3755,3806,3808,3808,3811,3813,3817,3823,3823,3832,3842,3854,3865,3870,3870,3873,3876,3885,3907,3907,3924,3950,3956,3962,3962,3979,3999,4008,4013,4013,4020,4051,4084,4096,4118,4118,4127,4131,4136,4159,4159,4179,4191,4224,4233,4233,4240,4246,4254,4262,4262,4268,4280,4309,4325,4351,4351,4358,4363,4389,4400
0,0,0,0,0,0,0,0,0,0,0,0,0,0,0,0,0,0,0,0,0,0,0,0,0,0,0,0,0,0,0,0,0,0,0,0,0,0,0,0,0,0,0,0,0,0,0,0,0,0,0,0,0,0,0,0,0,0,0,0,0,0,0,0,0,0,0,0,0,0,0,0,0,0,0,0,0,0,0,0,0,0,0,0,0,0,0,0,0,0,0,0,0,0,0,0,0,0,0,0,0,0,0,0,0,0,0,0,0,0,0,0,0,0,0,0,0,0,0,0,0,0,0,0,0,0,0,0,0,0,0,0,0,0,0,0,0,0,0,0,0,0,0,0,0,0,0,0,0,0,0,0,0,0,0,0,0,0,0,0,0,0,0,0,0,0,0,0,0,0,0,0,0,0,0,0,0,0,0,0,0,0,0,0,0,0,0,0,0,0,0,0,0,0,0,0,0,0,0,0,0,0,0,0,0,0,0,0,0,0,0,0,0,0,0,0,0,0,0,0,0,0,0,0,0,0,0,0,0,0,0,0,0,0,0,0,0,0,0,0,0,0,0,0,0,0,0,0,0,0,0,0,0,0,0,0,0,0,0,0,0,0,0,0,0,0,0,0,0,0,0,0,0,0,0,0,0,0,0,0,0,0,0,0,1972,1972,1972,1979,1982,1986,1990,1990,1993,1997,2001,2004,2004,2008,2013,2017,2020,2020,2023,2026,2030,2033,2037,2037,2040,2044,2048,2051,2051,2054,2058,2061,2065,2065,2069,2074,2078,2082,2082,2086,2089,2092,2095,2095,2098,2101,2104,2106,2106,2110,2114,2119,2124,2124,2127,2130,2132,2134,2137,2137,2140,2144,2157,2163,2163,2168,2171,2174,2177,2177,2179,2182,2185,2188,2188,2191,2195,2198,2203,2203,2208,2213,2217,2221,2221,2225,2228,2232,2236,2240,2240,2244,2247,2251,2255,2255,2259,2264,2269,2274,2274,2279,2285,2291,2296,2296,2300,2303,2311,2313,2313,2316,2320,2324,2327,2327,2331,2335,2339,2343,2348,2348,2354,2361,2368,2373,2373,2378,2382,2385,2389,2389,2393,2397,2402,2406,2406,2411,2415,2419,2425,2425,2432,2439,2444,2448,2448,2452,2455,2459,2463,2463,2468,2472,2479,2486,2501,2501,2506,2510,2514,2518,2518,2521,2525,2529,2532,2532,2536,2540,2550,2571,2571,2576,2578,2580,2583,2583,2585,2586,2589,2591,2593,2593,2598,2604,2615,2627,2627,2634,2640,2644,2650,2650,2658,2667,2675,2680,2680,2684,2688,2692,2695,2695,2700,2708,2713,2720,2720,2728,2738,2746,2751,2756,2756,2761,2771,2781,2790,2790,2798,2803,2807,2811,2811,2819,2829,2836,2843,2843,2850,2861,2868,2872,2872,2875,2877,2880,2884,2898,2898,2908,2912,2916,2921,2921,2927,2939,2952,2966,2966,2969,2970,2971,2972,2972,2973,2974,2975,2981,2981,3016,3042,3048,3054,3063,3063,3071,3078,3084,3088,3088,3094,3110,3129,3136,3136,3139,3143,3148,3157,3157,3171,3184,3202,3209,3209,3212,3216,3221,3225,3229,3229,3233,3241,3278,3291,3291,3304,3311,3315,3319,3319,3323,3332,3341,3349,3349,3355,3361,3367,3375,3375,3387,3401,3410,3415,3421,3421,3452,3458,3462,3467,3467,3475,3492,3501,3506,3506,3514,3533,3547,3554,3554,3563,3572,3580,3587,3587,3595,3604,3615,3634,3648,3648,3654,3661,3669,3676,3676,3690,3723,3738,3742,3742,3746,3761,3810,3811,3811,3814,3817,3822,3831,3842,3842,3854,3866,3872,3875,3875,3879,3883,3894,3925,3925,3952,3957,3962,3983,3983,4000,4008,4013,4018,4018,4028,4051,4084,4096,4128,4128,4131,4139,4171,4178,4178,4186,4215,4233,4242,4242,4247,4253,4259,4266,4266,4277,4308,4326,4348,4362,4362,4397,4400,4402,4406
0,0,0,0,0,0,0,0,0,0,0,0,0,0,0,0,0,0,0,0,0,0,0,0,0,0,0,0,0,0,0,0,0,0,0,0,0,0,0,0,0,0,0,0,0,0,0,0,0,0,0,0,0,0,0,0,0,0,0,0,0,0,0,0,0,0,0,0,0,0,0,0,0,0,0,0,0,0,0,0,0,0,0,0,0,0,0,0,0,0,0,0,0,0,0,0,0,0,0,0,0,0,0,0,0,0,0,0,0,0,0,0,0,0,0,0,0,0,0,0,0,0,0,0,0,0,0,0,0,0,0,0,0,0,0,0,0,0,0,0,0,0,0,0,0,0,0,0,0,0,0,0,0,0,0,0,0,0,0,0,0,0,0,0,0,0,0,0,0,0,0,0,0,0,0,0,0,0,0,0,0,0,0,0,0,0,0,0,0,0,0,0,0,0,0,0,0,0,0,0,0,0,0,0,0,0,0,0,0,0,0,0,0,0,0,0,0,0,0,0,0,0,0,0,0,0,0,0,0,0,0,0,0,0,0,0,0,0,0,0,0,0,0,0,0,0,0,0,0,0,0,0,0,0,0,0,0,0,0,0,0,0,0,0,0,0,0,0,0,0,0,0,0,0,0,0,0,0,0,0,0,0,0,0,1976,1976,1976,1981,1983,1987,1991,1991,1995,1999,2002,2006,2006,2010,2013,2017,2020,2020,2023,2026,2030,2033,2039,2039,2043,2046,2050,2054,2054,2057,2061,2065,2070,2070,2075,2079,2083,2087,2087,2090,2093,2096,2098,2098,2101,2104,2107,2110,2110,2114,2121,2127,2132,2132,2134,2136,2138,2140,2143,2143,2146,2151,2157,2163,2163,2168,2171,2177,2180,2180,2182,2185,2188,2192,2192,2196,2200,2205,2211,2211,2216,2219,2222,2225,2225,2229,2233,2236,2240,2244,2244,2247,2251,2254,2259,2259,2263,2268,2273,2278,2278,2284,2291,2297,2302,2302,2306,2308,2311,2313,2313,2316,2320,2324,2327,2327,2331,2335,2344,2348,2353,2353,2359,2365,2372,2377,2377,2382,2386,2390,2394,2394,2398,2402,2407,2411,2411,2416,2420,2426,2433,2433,2440,2445,2449,2453,2453,2456,2459,2463,2468,2474,2474,2480,2488,2495,2501,2501,2506,2510,2514,2518,2518,2521,2529,2533,2537,2537,2540,2546,2568,2576,2576,2579,2581,2583,2585,2585,2587,2589,2592,2595,2598,2598,2604,2614,2624,2635,2635,2642,2648,2653,2659,2659,2667,2674,2680,2685,2685,2689,2693,2697,2700,2700,2704,2708,2713,2720,2720,2728,2738,2751,2756,2763,2763,2772,2782,2790,2797,2797,2804,2808,2813,2820,2820,2828,2836,2843,2849,2849,2857,2868,2875,2878,2878,2880,2883,2886,2895,2906,2906,2912,2916,2921,2926,2926,2935,2951,2961,2966,2966,2969,2970,2971,2972,2972,2973,2974,2975,2981,2981,3042,3050,3056,3062,3071,3071,3078,3084,3090,3096,3096,3106,3128,3136,3140,3140,3143,3147,3154,3168,3168,3185,3203,3209,3214,3214,3217,3222,3226,3231,3235,3235,3241,3257,3278,3291,3291,3304,3311,3315,3319,3319,3330,3339,3350,3358,3358,3363,3369,3376,3385,3385,3402,3413,3417,3422,3451,3451,3460,3465,3470,3476,3476,3488,3499,3507,3518,3518,3535,3545,3552,3560,3560,3569,3581,3588,3595,3595,3603,3617,3636,3644,3648,3648,3654,3661,3669,3676,3676,3690,3737,3742,3747,3747,3754,3809,3812,3814,3814,3818,3822,3830,3844,3853,3853,3863,3873,3878,3880,3880,3883,3890,3925,3951,3951,3964,3986,3996,4001,4001,4008,4012,4018,4028,4028,4050,4079,4095,4114,4128,4128,4131,4139,4171,4178,4178,4186,4215,4238,4247,4247,4253,4258,4264,4273,4273,4313,4327,4335,4377,4398,4398,4402,4404,4406,4415
0,0,0,0,0,0,0,0,0,0,0,0,0,0,0,0,0,0,0,0,0,0,0,0,0,0,0,0,0,0,0,0,0,0,0,0,0,0,0,0,0,0,0,0,0,0,0,0,0,0,0,0,0,0,0,0,0,0,0,0,0,0,0,0,0,0,0,0,0,0,0,0,0,0,0,0,0,0,0,0,0,0,0,0,0,0,0,0,0,0,0,0,0,0,0,0,0,0,0,0,0,0,0,0,0,0,0,0,0,0,0,0,0,0,0,0,0,0,0,0,0,0,0,0,0,0,0,0,0,0,0,0,0,0,0,0,0,0,0,0,0,0,0,0,0,0,0,0,0,0,0,0,0,0,0,0,0,0,0,0,0,0,0,0,0,0,0,0,0,0,0,0,0,0,0,0,0,0,0,0,0,0,0,0,0,0,0,0,0,0,0,0,0,0,0,0,0,0,0,0,0,0,0,0,0,0,0,0,0,0,0,0,0,0,0,0,0,0,0,0,0,0,0,0,0,0,0,0,0,0,0,0,0,0,0,0,0,0,0,0,0,0,0,0,0,0,0,0,0,0,0,0,0,0,0,0,0,0,0,0,0,0,0,0,0,0,0,0,0,0,0,0,0,0,0,0,0,0,0,0,0,0,0,0,0,0,1983,1983,1985,1988,1991,1991,1995,1999,2003,2007,2007,2010,2014,2018,2021,2021,2025,2028,2032,2035,2039,2039,2043,2046,2050,2054,2054,2057,2065,2069,2075,2075,2080,2084,2088,2091,2091,2094,2097,2099,2102,2102,2105,2108,2111,2115,2115,2122,2129,2135,2138,2138,2140,2141,2143,2146,2149,2149,2152,2157,2163,2168,2168,2172,2175,2177,2180,2180,2182,2185,2188,2192,2192,2196,2200,2212,2218,2218,2222,2225,2227,2230,2230,2233,2237,2241,2244,2248,2248,2251,2254,2258,2263,2263,2267,2273,2278,2283,2283,2289,2297,2303,2307,2307,2310,2313,2316,2318,2318,2322,2325,2329,2333,2333,2337,2340,2344,2348,2353,2353,2359,2365,2376,2382,2382,2386,2391,2395,2398,2398,2402,2407,2411,2416,2416,2421,2426,2432,2440,2440,2447,2452,2455,2458,2458,2461,2464,2468,2474,2481,2481,2489,2496,2502,2507,2507,2511,2514,2518,2522,2522,2525,2529,2533,2537,2537,2540,2546,2573,2579,2579,2582,2584,2586,2588,2588,2590,2593,2595,2599,2604,2604,2612,2622,2632,2645,2645,2652,2656,2661,2667,2667,2673,2679,2685,2690,2690,2694,2698,2701,2704,2704,2708,2712,2719,2729,2737,2737,2745,2751,2756,2763,2763,2772,2782,2796,2803,2803,2809,2815,2821,2829,2829,2838,2845,2850,2856,2856,2865,2874,2879,2883,2883,2886,2890,2895,2905,2912,2912,2917,2921,2926,2935,2935,2948,2960,2967,2971,2971,2973,2974,2975,2975,2975,2976,2977,2980,3016,3016,3042,3050,3056,3071,3079,3079,3086,3093,3098,3105,3105,3122,3136,3141,3144,3144,3148,3152,3160,3175,3175,3197,3210,3215,3219,3219,3223,3228,3233,3237,3243,3243,3252,3270,3292,3305,3305,3311,3316,3319,3324,3324,3330,3339,3350,3358,3358,3363,3369,3376,3385,3385,3417,3420,3423,3445,3460,3460,3466,3472,3479,3488,3488,3498,3507,3518,3534,3534,3543,3550,3556,3568,3568,3583,3592,3597,3603,3603,3615,3636,3645,3649,3654,3654,3660,3668,3678,3691,3691,3717,3737,3742,3747,3747,3754,3812,3815,3819,3819,3822,3831,3844,3852,3861,3861,3873,3879,3883,3884,3884,3890,3934,3946,3974,3974,3989,3997,4003,4008,4008,4012,4017,4027,4046,4046,4064,4093,4104,4122,4132,4132,4142,4169,4177,4185,4185,4203,4225,4238,4247,4247,4253,4258,4264,4273,4273,4313,4332,4379,4397,4403,4403,4405,4407,4414,4444
0,0,0,0,0,0,0,0,0,0,0,0,0,0,0,0,0,0,0,0,0,0,0,0,0,0,0,0,0,0,0,0,0,0,0,0,0,0,0,0,0,0,0,0,0,0,0,0,0,0,0,0,0,0,0,0,0,0,0,0,0,0,0,0,0,0,0,0,0,0,0,0,0,0,0,0,0,0,0,0,0,0,0,0,0,0,0,0,0,0,0,0,0,0,0,0,0,0,0,0,0,0,0,0,0,0,0,0,0,0,0,0,0,0,0,0,0,0,0,0,0,0,0,0,0,0,0,0,0,0,0,0,0,0,0,0,0,0,0,0,0,0,0,0,0,0,0,0,0,0,0,0,0,0,0,0,0,0,0,0,0,0,0,0,0,0,0,0,0,0,0,0,0,0,0,0,0,0,0,0,0,0,0,0,0,0,0,0,0,0,0,0,0,0,0,0,0,0,0,0,0,0,0,0,0,0,0,0,0,0,0,0,0,0,0,0,0,0,0,0,0,0,0,0,0,0,0,0,0,0,0,0,0,0,0,0,0,0,0,0,0,0,0,0,0,0,0,0,0,0,0,0,0,0,0,0,0,0,0,0,0,0,0,0,0,0,0,0,0,0,0,0,0,0,0,0,0,0,0,0,0,0,0,0,0,0,1983,1983,1985,1987,1991,1991,1994,1998,2002,2006,2007,2010,2014,2018,2022,2025,2025,2029,2033,2036,2040,2040,2044,2049,2053,2057,2057,2061,2065,2069,2075,2075,2080,2089,2092,2095,2095,2098,2100,2103,2106,2106,2109,2112,2116,2123,2123,2130,2136,2139,2142,2144,2144,2146,2148,2151,2154,2154,2158,2163,2168,2172,2172,2175,2178,2181,2183,2183,2186,2189,2192,2196,2196,2200,2206,2212,2218,2218,2222,2225,2227,2235,2235,2238,2241,2245,2248,2252,2252,2255,2259,2262,2267,2267,2272,2277,2282,2288,2288,2296,2303,2308,2312,2312,2315,2318,2321,2324,2324,2327,2332,2336,2340,2340,2343,2346,2349,2353,2357,2357,2363,2369,2376,2382,2382,2386,2391,2395,2398,2398,2406,2411,2415,2420,2420,2425,2431,2440,2447,2447,2454,2458,2461,2464,2464,2467,2470,2475,2482,2489,2489,2496,2502,2507,2511,2511,2515,2519,2522,2526,2526,2530,2534,2538,2542,2542,2545,2554,2573,2579,2579,2582,2584,2586,2588,2588,2590,2593,2595,2599,2610,2610,2618,2628,2645,2658,2658,2661,2664,2668,2673,2673,2679,2685,2690,2695,2695,2699,2702,2705,2708,2708,2712,2717,2728,2737,2745,2745,2751,2757,2764,2772,2772,2781,2788,2796,2803,2803,2809,2815,2821,2829,2829,2846,2851,2856,2862,2862,2871,2879,2885,2890,2890,2893,2898,2905,2912,2918,2918,2923,2928,2934,2944,2944,2957,2965,2972,2976,2976,2978,2979,2978,2978,2978,2978,2980,3023,3038,3038,3051,3058,3064,3071,3079,3079,3086,3093,3098,3105,3105,3136,3141,3145,3148,3148,3152,3158,3172,3191,3191,3209,3215,3220,3224,3224,3228,3233,3239,3245,3252,3252,3264,3284,3304,3311,3311,3315,3319,3323,3327,3327,3335,3348,3357,3365,3365,3370,3375,3384,3408,3408,3417,3420,3423,3445,3467,3467,3476,3483,3490,3498,3498,3504,3512,3527,3541,3541,3548,3555,3566,3585,3585,3595,3600,3605,3614,3614,3631,3644,3650,3655,3662,3662,3671,3681,3696,3712,3712,3731,3743,3747,3752,3752,3767,3812,3815,3819,3819,3822,3831,3844,3852,3861,3861,3873,3879,3883,3884,3884,3890,3939,3979,3992,3992,4001,4006,4010,4014,4014,4017,4026,4045,4062,4062,4092,4104,4119,4131,4142,4142,4167,4176,4182,4199,4199,4219,4235,4246,4254,4254,4259,4267,4304,4318,4318,4327,4332,4379,4397,4403,4403,4405,4407,4414,4454
0,0,0,0,0,0,0,0,0,0,0,0,0,0,0,0,0,0,0,0,0,0,0,0,0,0,0,0,0,0,0,0,0,0,0,0,0,0,0,0,0,0,0,0,0,0,0,0,0,0,0,0,0,0,0,0,0,0,0,0,0,0,0,0,0,0,0,0,0,0,0,0,0,0,0,0,0,0,0,0,0,0,0,0,0,0,0,0,0,0,0,0,0,0,0,0,0,0,0,0,0,0,0,0,0,0,0,0,0,0,0,0,0,0,0,0,0,0,0,0,0,0,0,0,0,0,0,0,0,0,0,0,0,0,0,0,0,0,0,0,0,0,0,0,0,0,0,0,0,0,0,0,0,0,0,0,0,0,0,0,0,0,0,0,0,0,0,0,0,0,0,0,0,0,0,0,0,0,0,0,0,0,0,0,0,0,0,0,0,0,0,0,0,0,0,0,0,0,0,0,0,0,0,0,0,0,0,0,0,0,0,0,0,0,0,0,0,0,0,0,0,0,0,0,0,0,0,0,0,0,0,0,0,0,0,0,0,0,0,0,0,0,0,0,0,0,0,0,0,0,0,0,0,0,0,0,0,0,0,0,0,0,0,0,0,0,0,0,0,0,0,0,0,0,0,0,0,0,0,0,0,0,0,0,0,0,0,1985,1985,1987,1991,1991,1994,1998,2000,2004,2009,2009,2013,2018,2022,2026,2026,2030,2033,2037,2041,2041,2046,2050,2055,2059,2059,2064,2069,2074,2080,2080,2085,2089,2092,2095,2095,2098,2100,2103,2110,2110,2113,2117,2123,2130,2130,2136,2140,2143,2145,2148,2148,2150,2152,2155,2158,2158,2163,2168,2172,2176,2176,2179,2182,2184,2186,2186,2189,2192,2196,2200,2200,2206,2213,2219,2224,2224,2227,2229,2232,2235,2235,2238,2241,2245,2248,2252,2252,2255,2263,2267,2272,2272,2277,2282,2287,2294,2294,2301,2308,2312,2316,2316,2319,2322,2325,2329,2329,2334,2338,2342,2345,2345,2348,2350,2353,2357,2361,2361,2366,2372,2379,2386,2386,2391,2395,2399,2403,2403,2406,2411,2415,2420,2420,2425,2431,2447,2455,2455,2461,2465,2468,2471,2471,2473,2477,2482,2489,2496,2496,2503,2507,2511,2515,2515,2519,2523,2527,2531,2531,2534,2538,2542,2546,2546,2552,2567,2578,2582,2582,2585,2587,2589,2591,2591,2593,2596,2599,2603,2610,2610,2618,2628,2660,2665,2665,2668,2671,2675,2679,2679,2684,2690,2695,2699,2699,2703,2706,2709,2712,2712,2716,2722,2737,2745,2751,2751,2758,2764,2771,2778,2778,2786,2794,2802,2809,2809,2816,2822,2831,2839,2839,2846,2851,2856,2862,2862,2871,2886,2893,2898,2898,2902,2908,2914,2920,2925,2925,2930,2935,2943,2954,2954,2962,2970,2977,2982,2982,2989,3005,3016,3022,3022,3025,3027,3035,3051,3051,3060,3067,3074,3081,3088,3088,3094,3099,3105,3116,3116,3136,3141,3145,3148,3148,3152,3158,3183,3201,3201,3214,3219,3224,3228,3228,3232,3239,3246,3253,3262,3262,3272,3291,3308,3313,3313,3317,3321,3326,3331,3331,3342,3357,3366,3372,3372,3377,3386,3409,3418,3418,3422,3425,3432,3458,3467,3467,3476,3483,3490,3498,3498,3504,3512,3540,3548,3548,3555,3565,3584,3597,3597,3603,3607,3612,3626,3626,3643,3656,3666,3674,3684,3684,3695,3703,3712,3727,3727,3742,3748,3753,3764,3764,3802,3815,3819,3824,3824,3831,3843,3853,3860,3872,3872,3882,3890,3919,3929,3929,3933,3939,3997,4004,4004,4008,4013,4016,4019,4019,4027,4046,4064,4087,4087,4100,4111,4126,4138,4153,4153,4172,4182,4199,4214,4214,4229,4245,4255,4263,4263,4275,4308,4316,4327,4327,4333,4378,4393,4403,4407,4407,4410,4417,4434,4454
0,0,0,0,0,0,0,0,0,0,0,0,0,0,0,0,0,0,0,0,0,0,0,0,0,0,0,0,0,0,0,0,0,0,0,0,0,0,0,0,0,0,0,0,0,0,0,0,0,0,0,0,0,0,0,0,0,0,0,0,0,0,0,0,0,0,0,0,0,0,0,0,0,0,0,0,0,0,0,0,0,0,0,0,0,0,0,0,0,0,0,0,0,0,0,0,0,0,0,0,0,0,0,0,0,0,0,0,0,0,0,0,0,0,0,0,0,0,0,0,0,0,0,0,0,0,0,0,0,0,0,0,0,0,0,0,0,0,0,0,0,0,0,0,0,0,0,0,0,0,0,0,0,0,0,0,0,0,0,0,0,0,0,0,0,0,0,0,0,0,0,0,0,0,0,0,0,0,0,0,0,0,0,0,0,0,0,0,0,0,0,0,0,0,0,0,0,0,0,0,0,0,0,0,0,0,0,0,0,0,0,0,0,0,0,0,0,0,0,0,0,0,0,0,0,0,0,0,0,0,0,0,0,0,0,0,0,0,0,0,0,0,0,0,0,0,0,0,0,0,0,0,0,0,0,0,0,0,0,0,0,0,0,0,0,0,0,0,0,0,0,0,0,0,0,0,0,0,0,0,0,0,0,0,0,0,0,1963,1963,1985,1989,1989,1992,1996,2000,2004,2009,2009,2013,2018,2022,2025,2025,2029,2033,2037,2042,2042,2046,2051,2056,2061,2061,2066,2073,2080,2086,2086,2090,2093,2096,2099,2099,2101,2104,2107,2110,2110,2113,2117,2123,2136,2136,2140,2143,2146,2148,2150,2150,2153,2155,2158,2162,2162,2167,2171,2176,2179,2179,2182,2185,2187,2190,2190,2192,2196,2200,2205,2205,2212,2219,2225,2229,2229,2231,2234,2236,2239,2242,2242,2246,2249,2253,2256,2256,2259,2263,2267,2272,2272,2277,2282,2287,2300,2300,2307,2312,2316,2319,2319,2323,2326,2330,2334,2334,2339,2343,2346,2349,2349,2352,2354,2357,2361,2365,2365,2370,2376,2384,2390,2390,2395,2399,2402,2406,2406,2410,2414,2419,2424,2424,2430,2438,2447,2455,2455,2461,2471,2474,2477,2477,2480,2483,2489,2496,2503,2503,2508,2512,2516,2520,2520,2524,2528,2532,2536,2536,2539,2543,2547,2552,2552,2558,2573,2582,2586,2586,2589,2591,2593,2595,2597,2597,2600,2603,2607,2613,2613,2623,2640,2660,2665,2665,2668,2671,2675,2685,2685,2690,2695,2700,2704,2704,2708,2711,2713,2716,2716,2721,2734,2746,2753,2759,2759,2765,2771,2777,2784,2784,2791,2800,2808,2816,2816,2824,2832,2841,2847,2847,2852,2857,2861,2868,2868,2876,2886,2893,2898,2898,2902,2908,2914,2920,2925,2925,2935,2942,2951,2959,2959,2966,2973,2983,2992,2992,3003,3012,3020,3025,3025,3029,3036,3052,3061,3061,3067,3075,3082,3090,3095,3095,3100,3104,3111,3133,3133,3143,3147,3149,3152,3152,3156,3166,3183,3201,3201,3214,3219,3226,3231,3231,3237,3245,3254,3263,3272,3272,3283,3302,3310,3315,3315,3319,3324,3329,3338,3338,3354,3365,3373,3379,3379,3385,3403,3417,3422,3422,3425,3432,3454,3466,3477,3477,3489,3495,3499,3504,3504,3510,3523,3540,3548,3548,3555,3565,3584,3606,3606,3609,3614,3624,3643,3643,3659,3670,3678,3686,3694,3694,3705,3713,3725,3741,3741,3750,3755,3765,3783,3783,3811,3822,3827,3833,3833,3845,3855,3861,3871,3883,3883,3898,3920,3927,3932,3932,3938,3987,3997,4004,4004,4008,4013,4016,4019,4019,4027,4046,4064,4098,4098,4110,4128,4139,4148,4168,4168,4184,4198,4213,4225,4225,4242,4255,4265,4279,4279,4305,4316,4339,4362,4362,4376,4389,4405,4410,4414,4414,4420,4431,4447,4474
0,0,0,0,0,0,0,0,0,0,0,0,0,0,0,0,0,0,0,0,0,0,0,0,0,0,0,0,0,0,0,0,0,0,0,0,0,0,0,0,0,0,0,0,0,0,0,0,0,0,0,0,0,0,0,0,0,0,0,0,0,0,0,0,0,0,0,0,0,0,0,0,0,0,0,0,0,0,0,0,0,0,0,0,0,0,0,0,0,0,0,0,0,0,0,0,0,0,0,0,0,0,0,0,0,0,0,0,0,0,0,0,0,0,0,0,0,0,0,0,0,0,0,0,0,0,0,0,0,0,0,0,0,0,0,0,0,0,0,0,0,0,0,0,0,0,0,0,0,0,0,0,0,0,0,0,0,0,0,0,0,0,0,0,0,0,0,0,0,0,0,0,0,0,0,0,0,0,0,0,0,0,0,0,0,0,0,0,0,0,0,0,0,0,0,0,0,0,0,0,0,0,0,0,0,0,0,0,0,0,0,0,0,0,0,0,0,0,0,0,0,0,0,0,0,0,0,0,0,0,0,0,0,0,0,0,0,0,0,0,0,0,0,0,0,0,0,0,0,0,0,0,0,0,0,0,0,0,0,0,0,0,0,0,0,0,0,0,0,0,0,0,0,0,0,0,0,0,0,0,0,0,0,0,0,0,0,1963,1963,1967,1983,1989,1989,1993,1997,2002,2007,2007,2012,2017,2021,2025,2025,2029,2033,2037,2042,2042,2046,2052,2057,2063,2063,2069,2077,2086,2091,2091,2094,2097,2100,2102,2102,2105,2107,2110,2114,2114,2119,2124,2130,2136,2136,2140,2143,2146,2148,2150,2150,2153,2155,2161,2166,2166,2170,2175,2179,2183,2183,2186,2188,2191,2193,2193,2196,2199,2204,2211,2211,2219,2225,2229,2233,2233,2236,2238,2241,2244,2247,2247,2250,2254,2257,2260,2260,2263,2267,2271,2276,2276,2281,2286,2293,2300,2300,2307,2312,2319,2323,2323,2326,2330,2335,2339,2339,2343,2347,2350,2353,2355,2355,2358,2361,2365,2369,2369,2374,2381,2389,2395,2395,2399,2403,2406,2410,2410,2413,2418,2422,2428,2428,2435,2444,2453,2462,2462,2467,2471,2474,2477,2477,2480,2483,2489,2496,2508,2508,2513,2517,2522,2526,2526,2531,2534,2538,2541,2541,2544,2548,2552,2558,2558,2567,2579,2586,2590,2590,2593,2596,2598,2599,2601,2601,2603,2607,2611,2620,2620,2638,2662,2667,2670,2670,2673,2676,2680,2685,2685,2690,2695,2700,2704,2704,2708,2711,2713,2716,2716,2721,2745,2755,2761,2767,2767,2772,2777,2782,2788,2788,2797,2807,2816,2824,2824,2832,2841,2848,2853,2853,2858,2862,2867,2873,2873,2884,2896,2902,2906,2906,2910,2916,2921,2926,2931,2931,2935,2942,2951,2959,2959,2966,2973,2994,3003,3003,3010,3020,3032,3042,3042,3048,3055,3061,3067,3067,3075,3082,3091,3098,3102,3102,3106,3111,3127,3145,3145,3149,3151,3153,3156,3156,3165,3184,3197,3211,3211,3218,3223,3226,3231,3231,3237,3245,3254,3263,3272,3272,3283,3303,3312,3317,3317,3321,3326,3331,3345,3345,3363,3375,3382,3388,3388,3397,3414,3424,3430,3430,3439,3456,3463,3472,3491,3491,3498,3501,3505,3508,3508,3515,3535,3549,3554,3554,3562,3578,3599,3606,3606,3609,3614,3624,3643,3643,3659,3678,3685,3695,3712,3712,3721,3730,3740,3750,3750,3757,3767,3781,3799,3799,3827,3833,3838,3848,3848,3856,3863,3871,3883,3898,3898,3918,3928,3941,3982,3982,3994,4000,4005,4010,4010,4015,4018,4021,4026,4026,4042,4066,4086,4098,4098,4110,4128,4139,4148,4181,4181,4198,4211,4223,4236,4236,4258,4266,4287,4310,4310,4325,4351,4365,4374,4374,4384,4405,4412,4417,4423,4423,4430,4439,4476,4487
0,0,0,0,0,0,0,0,0,0,0,0,0,0,0,0,0,0,0,0,0,0,0,0,0,0,0,0,0,0,0,0,0,0,0,0,0,0,0,0,0,0,0,0,0,0,0,0,0,0,0,0,0,0,0,0,0,0,0,0,0,0,0,0,0,0,0,0,0,0,0,0,0,0,0,0,0,0,0,0,0,0,0,0,0,0,0,0,0,0,0,0,0,0,0,0,0,0,0,0,0,0,0,0,0,0,0,0,0,0,0,0,0,0,0,0,0,0,0,0,0,0,0,0,0,0,0,0,0,0,0,0,0,0,0,0,0,0,0,0,0,0,0,0,0,0,0,0,0,0,0,0,0,0,0,0,0,0,0,0,0,0,0,0,0,0,0,0,0,0,0,0,0,0,0,0,0,0,0,0,0,0,0,0,0,0,0,0,0,0,0,0,0,0,0,0,0,0,0,0,0,0,0,0,0,0,0,0,0,0,0,0,0,0,0,0,0,0,0,0,0,0,0,0,0,0,0,0,0,0,0,0,0,0,0,0,0,0,0,0,0,0,0,0,0,0,0,0,0,0,0,0,0,0,0,0,0,0,0,0,0,0,0,0,0,0,0,0,0,0,0,0,0,0,0,0,0,0,0,0,0,0,0,0,0,0,0,0,1967,1967,1970,1983,1983,1988,1993,1998,2004,2004,2010,2015,2019,2023,2023,2028,2032,2036,2040,2040,2046,2052,2057,2063,2063,2074,2085,2091,2095,2095,2098,2100,2103,2105,2105,2108,2111,2114,2119,2119,2124,2129,2135,2140,2140,2143,2146,2148,2151,2153,2153,2155,2158,2161,2166,2166,2170,2175,2179,2183,2183,2189,2192,2194,2197,2197,2200,2203,2209,2216,2216,2224,2229,2233,2236,2236,2239,2242,2245,2248,2251,2251,2255,2258,2261,2264,2264,2267,2271,2275,2280,2280,2286,2292,2299,2306,2306,2311,2315,2319,2323,2323,2326,2330,2335,2339,2339,2343,2347,2353,2355,2358,2358,2361,2364,2368,2373,2373,2380,2387,2394,2399,2399,2403,2406,2410,2413,2413,2417,2421,2426,2433,2433,2442,2452,2461,2468,2468,2473,2476,2479,2482,2485,2485,2489,2495,2502,2508,2508,2513,2517,2522,2526,2526,2531,2534,2538,2547,2547,2550,2554,2558,2564,2564,2573,2583,2590,2595,2595,2599,2601,2603,2604,2606,2606,2608,2611,2616,2628,2628,2651,2668,2672,2675,2675,2678,2682,2686,2691,2691,2695,2699,2705,2709,2709,2713,2715,2718,2720,2720,2727,2745,2755,2761,2773,2773,2777,2782,2787,2794,2794,2804,2815,2823,2831,2831,2840,2848,2854,2858,2858,2862,2867,2872,2881,2881,2897,2903,2908,2911,2916,2916,2921,2927,2932,2936,2936,2942,2949,2957,2963,2963,2970,2980,2994,3003,3003,3010,3020,3046,3052,3052,3057,3062,3066,3073,3073,3082,3092,3099,3104,3108,3108,3112,3125,3146,3151,3151,3154,3155,3158,3164,3164,3183,3196,3205,3214,3214,3220,3225,3229,3234,3234,3242,3256,3265,3273,3280,3280,3289,3303,3312,3317,3317,3321,3326,3331,3345,3345,3376,3384,3389,3395,3395,3410,3435,3455,3459,3459,3461,3463,3468,3489,3500,3500,3503,3506,3509,3514,3514,3532,3548,3554,3561,3561,3579,3600,3608,3611,3611,3615,3621,3640,3659,3659,3669,3678,3685,3695,3712,3712,3721,3730,3740,3762,3762,3771,3783,3791,3833,3833,3836,3839,3846,3857,3857,3865,3873,3883,3903,3923,3923,3937,3961,3987,3995,3995,4001,4005,4010,4015,4015,4019,4023,4028,4043,4043,4064,4083,4099,4116,4116,4133,4141,4146,4157,4181,4181,4198,4211,4223,4236,4236,4258,4302,4312,4324,4324,4349,4364,4372,4378,4378,4404,4414,4490,4492,4493,4493,4491,4489,4489,4490
0,0,0,0,0,0,0,0,0,0,0,0,0,0,0,0,0,0,0,0,0,0,0,0,0,0,0,0,0,0,0,0,0,0,0,0,0,0,0,0,0,0,0,0,0,0,0,0,0,0,0,0,0,0,0,0,0,0,0,0,0,0,0,0,0,0,0,0,0,0,0,0,0,0,0,0,0,0,0,0,0,0,0,0,0,0,0,0,0,0,0,0,0,0,0,0,0,0,0,0,0,0,0,0,0,0,0,0,0,0,0,0,0,0,0,0,0,0,0,0,0,0,0,0,0,0,0,0,0,0,0,0,0,0,0,0,0,0,0,0,0,0,0,0,0,0,0,0,0,0,0,0,0,0,0,0,0,0,0,0,0,0,0,0,0,0,0,0,0,0,0,0,0,0,0,0,0,0,0,0,0,0,0,0,0,0,0,0,0,0,0,0,0,0,0,0,0,0,0,0,0,0,0,0,0,0,0,0,0,0,0,0,0,0,0,0,0,0,0,0,0,0,0,0,0,0,0,0,0,0,0,0,0,0,0,0,0,0,0,0,0,0,0,0,0,0,0,0,0,0,0,0,0,0,0,0,0,0,0,0,0,0,0,0,0,0,0,0,0,0,0,0,0,0,0,0,0,0,0,0,0,0,0,0,0,0,0,0,0,1970,1970,1983,1981,1981,1988,1994,2000,2000,2007,2013,2017,2022,2022,2026,2030,2034,2038,2038,2044,2051,2057,2063,2063,2080,2091,2094,2097,2097,2100,2103,2105,2108,2108,2111,2114,2118,2123,2123,2128,2134,2138,2143,2146,2146,2148,2151,2153,2155,2155,2157,2160,2164,2168,2168,2173,2178,2182,2186,2186,2189,2192,2194,2197,2197,2200,2203,2209,2222,2222,2228,2233,2236,2240,2240,2243,2246,2249,2252,2256,2256,2259,2262,2265,2269,2269,2272,2275,2279,2285,2285,2291,2299,2305,2311,2311,2315,2319,2322,2326,2326,2330,2334,2339,2343,2343,2347,2350,2353,2355,2358,2358,2361,2364,2368,2373,2373,2380,2393,2399,2403,2403,2406,2410,2413,2417,2417,2420,2425,2430,2439,2439,2449,2458,2466,2472,2472,2477,2481,2484,2488,2491,2491,2495,2501,2508,2514,2514,2519,2524,2528,2533,2533,2537,2541,2544,2547,2547,2550,2554,2558,2564,2564,2573,2588,2595,2602,2602,2606,2609,2610,2610,2612,2612,2614,2617,2626,2643,2643,2667,2673,2676,2679,2679,2683,2687,2691,2696,2696,2700,2704,2710,2715,2715,2718,2720,2723,2728,2728,2742,2754,2763,2768,2773,2773,2777,2782,2787,2794,2794,2804,2820,2829,2837,2837,2847,2854,2858,2863,2863,2867,2872,2879,2893,2893,2905,2909,2912,2916,2921,2921,2927,2932,2937,2941,2941,2948,2956,2962,2968,2968,2974,2988,3001,3010,3010,3021,3035,3046,3052,3052,3057,3062,3066,3073,3073,3090,3100,3107,3111,3115,3115,3124,3143,3151,3154,3154,3157,3158,3164,3186,3186,3196,3202,3210,3217,3217,3222,3226,3231,3239,3239,3259,3269,3275,3280,3287,3287,3297,3307,3314,3318,3318,3323,3328,3339,3361,3361,3376,3384,3389,3395,3395,3410,3457,3460,3462,3462,3464,3467,3472,3499,3504,3504,3507,3510,3515,3531,3531,3548,3555,3561,3586,3586,3604,3610,3614,3617,3617,3622,3633,3654,3665,3675,3675,3686,3701,3721,3725,3725,3730,3740,3751,3762,3762,3771,3783,3791,3837,3837,3839,3844,3865,3880,3880,3890,3898,3909,3935,3952,3952,3963,3983,3996,4001,4001,4005,4010,4015,4020,4020,4025,4032,4049,4066,4066,4097,4125,4138,4141,4141,4144,4148,4154,4177,4198,4198,4211,4222,4232,4256,4256,4266,4302,4312,4324,4324,4349,4371,4375,4381,4381,4416,4488,4492,4494,4495,4495,4493,4492,4492,4492
0,0,0,0,0,0,0,0,0,0,0,0,0,0,0,0,0,0,0,0,0,0,0,0,0,0,0,0,0,0,0,0,0,0,0,0,0,0,0,0,0,0,0,0,0,0,0,0,0,0,0,0,0,0,0,0,0,0,0,0,0,0,0,0,0,0,0,0,0,0,0,0,0,0,0,0,0,0,0,0,0,0,0,0,0,0,0,0,0,0,0,0,0,0,0,0,0,0,0,0,0,0,0,0,0,0,0,0,0,0,0,0,0,0,0,0,0,0,0,0,0,0,0,0,0,0,0,0,0,0,0,0,0,0,0,0,0,0,0,0,0,0,0,0,0,0,0,0,0,0,0,0,0,0,0,0,0,0,0,0,0,0,0,0,0,0,0,0,0,0,0,0,0,0,0,0,0,0,0,0,0,0,0,0,0,0,0,0,0,0,0,0,0,0,0,0,0,0,0,0,0,0,0,0,0,0,0,0,0,0,0,0,0,0,0,0,0,0,0,0,0,0,0,0,0,0,0,0,0,0,0,0,0,0,0,0,0,0,0,0,0,0,0,0,0,0,0,0,0,0,0,0,0,0,0,0,0,0,0,0,0,0,0,0,0,0,0,0,0,0,0,0,0,0,0,0,0,0,0,0,0,0,0,0,0,0,0,0,0,1970,1960,1960,1960,1981,1988,1994,2000,2000,2002,2009,2015,2019,2019,2023,2027,2031,2036,2036,2041,2048,2055,2063,2063,2080,2093,2096,2099,2099,2102,2104,2107,2110,2110,2113,2117,2122,2127,2127,2132,2137,2142,2145,2148,2148,2151,2153,2155,2157,2157,2160,2163,2167,2171,2171,2176,2181,2186,2190,2190,2193,2196,2199,2201,2201,2204,2208,2214,2222,2222,2228,2233,2236,2240,2240,2246,2250,2253,2257,2260,2260,2264,2267,2270,2273,2273,2276,2280,2284,2291,2291,2299,2305,2310,2315,2315,2319,2322,2326,2329,2329,2333,2338,2342,2346,2346,2349,2352,2355,2358,2361,2361,2364,2368,2373,2379,2379,2386,2393,2399,2403,2403,2406,2410,2413,2421,2421,2424,2429,2436,2447,2447,2457,2465,2471,2477,2477,2481,2485,2489,2493,2496,2496,2500,2507,2515,2522,2522,2527,2532,2536,2540,2540,2545,2548,2551,2553,2553,2556,2560,2565,2571,2571,2580,2588,2595,2602,2602,2606,2609,2610,2610,2612,2612,2614,2617,2635,2654,2654,2674,2678,2681,2684,2684,2688,2692,2697,2700,2700,2705,2710,2716,2721,2721,2724,2727,2730,2742,2742,2754,2763,2770,2775,2779,2779,2783,2787,2792,2800,2800,2810,2820,2829,2837,2837,2847,2858,2863,2867,2867,2873,2880,2892,2905,2905,2910,2914,2917,2922,2927,2927,2932,2937,2941,2946,2946,2953,2961,2967,2974,2974,2985,3000,3010,3021,3021,3034,3046,3054,3059,3059,3064,3067,3073,3082,3082,3090,3100,3107,3111,3115,3115,3124,3150,3155,3159,3159,3163,3168,3189,3198,3198,3202,3207,3212,3218,3218,3223,3228,3237,3263,3263,3274,3277,3281,3287,3293,3293,3301,3310,3316,3320,3320,3325,3331,3350,3371,3371,3384,3391,3395,3403,3403,3441,3457,3460,3462,3462,3464,3467,3472,3505,3509,3509,3514,3530,3541,3549,3549,3560,3592,3599,3605,3605,3611,3617,3620,3624,3624,3632,3648,3661,3673,3702,3702,3725,3727,3729,3733,3733,3750,3765,3772,3779,3779,3784,3789,3836,3837,3837,3839,3844,3865,3880,3880,3890,3898,3909,3953,3961,3961,3983,3999,4002,4006,4006,4010,4015,4021,4026,4026,4035,4052,4072,4109,4109,4122,4138,4146,4148,4148,4150,4154,4164,4196,4209,4209,4222,4233,4263,4271,4271,4304,4312,4332,4352,4352,4364,4371,4375,4381,4381,4416,4492,4494,4496,4498,4498,4511,4536,4545,4550
0,0,0,0,0,0,0,0,0,0,0,0,0,0,0,0,0,0,0,0,0,0,0,0,0,0,0,0,0,0,0,0,0,0,0,0,0,0,0,0,0,0,0,0,0,0,0,0,0,0,0,0,0,0,0,0,0,0,0,0,0,0,0,0,0,0,0,0,0,0,0,0,0,0,0,0,0,0,0,0,0,0,0,0,0,0,0,0,0,0,0,0,0,0,0,0,0,0,0,0,0,0,0,0,0,0,0,0,0,0,0,0,0,0,0,0,0,0,0,0,0,0,0,0,0,0,0,0,0,0,0,0,0,0,0,0,0,0,0,0,0,0,0,0,0,0,0,0,0,0,0,0,0,0,0,0,0,0,0,0,0,0,0,0,0,0,0,0,0,0,0,0,0,0,0,0,0,0,0,0,0,0,0,0,0,0,0,0,0,0,0,0,0,0,0,0,0,0,0,0,0,0,0,0,0,0,0,0,0,0,0,0,0,0,0,0,0,0,0,0,0,0,0,0,0,0,0,0,0,0,0,0,0,0,0,0,0,0,0,0,0,0,0,0,0,0,0,0,0,0,0,0,0,0,0,0,0,0,0,0,0,0,0,0,0,0,0,0,0,0,0,0,0,0,0,0,0,0,0,0,0,0,0,0,0,0,0,0,0,0,1960,1960,1960,1978,1978,1988,1993,1993,2002,2009,2015,2017,2017,2020,2024,2028,2032,2032,2037,2044,2052,2064,2064,2089,2093,2096,2099,2099,2102,2104,2107,2110,2110,2113,2117,2125,2130,2135,2135,2140,2144,2148,2151,2151,2153,2155,2157,2159,2159,2162,2165,2169,2174,2174,2178,2184,2189,2194,2194,2198,2201,2204,2206,2206,2209,2213,2219,2226,2226,2232,2236,2240,2243,2246,2246,2250,2253,2257,2260,2260,2264,2267,2270,2278,2278,2281,2285,2291,2300,2300,2307,2311,2315,2319,2319,2322,2326,2329,2333,2333,2337,2341,2345,2349,2349,2352,2355,2358,2360,2364,2364,2367,2372,2379,2387,2387,2394,2399,2404,2407,2407,2411,2414,2417,2421,2421,2424,2429,2436,2447,2447,2463,2469,2474,2480,2480,2485,2489,2494,2497,2501,2501,2507,2515,2524,2530,2530,2535,2539,2544,2549,2549,2554,2556,2558,2560,2560,2563,2567,2571,2576,2576,2584,2593,2603,2611,2611,2615,2616,2618,2618,2619,2619,2621,2626,2635,2654,2654,2678,2682,2685,2689,2689,2693,2697,2701,2705,2705,2710,2716,2723,2727,2727,2731,2735,2741,2752,2762,2762,2770,2778,2781,2785,2785,2788,2792,2798,2808,2808,2818,2826,2835,2845,2845,2853,2858,2863,2867,2867,2873,2880,2892,2911,2911,2915,2918,2922,2927,2933,2933,2938,2941,2946,2953,2953,2962,2969,2975,2986,2986,2999,3007,3018,3031,3031,3044,3056,3064,3067,3067,3071,3076,3081,3089,3098,3098,3109,3115,3119,3128,3128,3141,3150,3155,3159,3159,3163,3168,3189,3203,3203,3206,3210,3215,3220,3220,3225,3256,3271,3277,3277,3281,3284,3288,3293,3301,3301,3308,3314,3319,3323,3323,3328,3346,3368,3384,3384,3391,3397,3403,3433,3433,3457,3461,3463,3465,3465,3467,3471,3489,3505,3509,3509,3514,3530,3541,3549,3549,3592,3597,3605,3612,3612,3619,3624,3628,3633,3633,3640,3652,3662,3711,3727,3727,3729,3732,3735,3748,3748,3767,3777,3781,3786,3786,3791,3837,3839,3841,3841,3844,3872,3884,3894,3894,3902,3911,3941,3953,3961,3961,3983,4005,4008,4011,4011,4015,4021,4027,4036,4036,4051,4066,4106,4120,4120,4142,4149,4150,4152,4152,4154,4160,4199,4208,4221,4221,4232,4258,4268,4304,4304,4315,4342,4352,4362,4362,4371,4375,4379,4420,4420,4477,4492,4494,4496,4498,4498,4511,4536,4545,4550
0,0,0,0,0,0,0,0,0,0,0,0,0,0,0,0,0,0,0,0,0,0,0,0,0,0,0,0,0,0,0,0,0,0,0,0,0,0,0,0,0,0,0,0,0,0,0,0,0,0,0,0,0,0,0,0,0,0,0,0,0,0,0,0,0,0,0,0,0,0,0,0,0,0,0,0,0,0,0,0,0,0,0,0,0,0,0,0,0,0,0,0,0,0,0,0,0,0,0,0,0,0,0,0,0,0,0,0,0,0,0,0,0,0,0,0,0,0,0,0,0,0,0,0,0,0,0,0,0,0,0,0,0,0,0,0,0,0,0,0,0,0,0,0,0,0,0,0,0,0,0,0,0,0,0,0,0,0,0,0,0,0,0,0,0,0,0,0,0,0,0,0,0,0,0,0,0,0,0,0,0,0,0,0,0,0,0,0,0,0,0,0,0,0,0,0,0,0,0,0,0,0,0,0,0,0,0,0,0,0,0,0,0,0,0,0,0,0,0,0,0,0,0,0,0,0,0,0,0,0,0,0,0,0,0,0,0,0,0,0,0,0,0,0,0,0,0,0,0,0,0,0,0,0,0,0,0,0,0,0,0,0,0,0,0,0,0,0,0,0,0,0,0,0,0,0,0,0,0,0,0,0,0,0,0,0,0,0,0,0,0,0,0,1978,1970,1970,1984,1984,1994,2004,2012,2017,2017,2020,2024,2028,2032,2032,2037,2044,2050,2069,2069,2091,2094,2097,2100,2100,2103,2106,2109,2112,2112,2116,2120,2125,2130,2135,2135,2140,2147,2150,2153,2153,2155,2157,2159,2161,2161,2164,2168,2171,2176,2176,2181,2187,2193,2199,2199,2204,2207,2209,2211,2211,2214,2218,2224,2230,2230,2235,2239,2243,2246,2250,2250,2253,2257,2261,2265,2265,2269,2272,2275,2278,2278,2281,2285,2291,2308,2308,2313,2316,2320,2323,2323,2326,2329,2333,2337,2337,2340,2345,2348,2351,2354,2354,2357,2360,2363,2366,2366,2371,2378,2387,2394,2394,2400,2404,2408,2412,2412,2415,2418,2421,2425,2425,2429,2433,2443,2455,2455,2463,2469,2474,2480,2480,2489,2494,2498,2502,2507,2507,2514,2524,2532,2537,2537,2542,2547,2554,2559,2559,2564,2565,2566,2568,2568,2570,2573,2577,2582,2582,2590,2603,2613,2619,2619,2622,2624,2625,2626,2627,2627,2629,2636,2649,2672,2672,2678,2682,2685,2689,2689,2693,2702,2706,2711,2711,2717,2724,2730,2735,2735,2739,2743,2751,2760,2769,2769,2779,2784,2788,2791,2791,2794,2798,2805,2814,2814,2824,2831,2840,2851,2851,2857,2862,2867,2874,2874,2882,2893,2905,2911,2911,2915,2918,2922,2927,2933,2933,2938,2941,2946,2964,2964,2976,2983,2991,2999,2999,3007,3018,3031,3043,3043,3056,3065,3070,3075,3075,3079,3083,3089,3096,3109,3109,3119,3124,3129,3137,3137,3148,3160,3181,3192,3192,3196,3199,3200,3203,3203,3206,3210,3215,3220,3220,3225,3270,3280,3286,3288,3288,3292,3296,3303,3309,3309,3314,3318,3322,3326,3326,3336,3358,3375,3390,3390,3399,3407,3423,3452,3452,3461,3464,3466,3468,3472,3472,3478,3501,3510,3517,3517,3530,3542,3553,3576,3576,3592,3597,3605,3612,3612,3619,3624,3635,3641,3641,3648,3657,3699,3727,3731,3731,3733,3735,3742,3766,3766,3782,3787,3790,3793,3793,3837,3840,3842,3843,3843,3869,3886,3895,3902,3902,3908,3943,3952,3960,4002,4002,4004,4005,4008,4011,4011,4015,4021,4027,4036,4036,4051,4066,4114,4142,4142,4149,4154,4155,4155,4155,4158,4201,4207,4218,4237,4237,4264,4275,4299,4319,4319,4340,4352,4361,4369,4369,4375,4378,4380,4426,4426,4477,4495,4498,4501,4512,4512,4531,4541,4548,4558
0,0,0,0,0,0,0,0,0,0,0,0,0,0,0,0,0,0,0,0,0,0,0,0,0,0,0,0,0,0,0,0,0,0,0,0,0,0,0,0,0,0,0,0,0,0,0,0,0,0,0,0,0,0,0,0,0,0,0,0,0,0,0,0,0,0,0,0,0,0,0,0,0,0,0,0,0,0,0,0,0,0,0,0,0,0,0,0,0,0,0,0,0,0,0,0,0,0,0,0,0,0,0,0,0,0,0,0,0,0,0,0,0,0,0,0,0,0,0,0,0,0,0,0,0,0,0,0,0,0,0,0,0,0,0,0,0,0,0,0,0,0,0,0,0,0,0,0,0,0,0,0,0,0,0,0,0,0,0,0,0,0,0,0,0,0,0,0,0,0,0,0,0,0,0,0,0,0,0,0,0,0,0,0,0,0,0,0,0,0,0,0,0,0,0,0,0,0,0,0,0,0,0,0,0,0,0,0,0,0,0,0,0,0,0,0,0,0,0,0,0,0,0,0,0,0,0,0,0,0,0,0,0,0,0,0,0,0,0,0,0,0,0,0,0,0,0,0,0,0,0,0,0,0,0,0,0,0,0,0,0,0,0,0,0,0,0,0,0,0,0,0,0,0,0,0,0,0,0,0,0,0,0,0,0,0,0,0,0,0,0,0,0,0,1970,1968,1968,1968,1981,1992,2005,2014,2014,2017,2021,2025,2028,2028,2033,2039,2050,2069,2069,2088,2093,2095,2099,2099,2103,2106,2110,2114,2114,2118,2123,2128,2133,2138,2138,2143,2147,2150,2153,2153,2155,2157,2159,2161,2161,2164,2168,2171,2178,2178,2183,2190,2199,2206,2206,2209,2212,2214,2217,2217,2220,2224,2229,2234,2234,2239,2242,2246,2250,2253,2253,2257,2261,2266,2271,2271,2275,2278,2280,2283,2283,2286,2292,2302,2308,2308,2313,2316,2320,2323,2323,2326,2329,2337,2340,2340,2344,2348,2351,2354,2357,2357,2360,2363,2366,2369,2369,2377,2387,2395,2401,2401,2405,2409,2413,2416,2416,2419,2423,2426,2429,2429,2433,2441,2452,2461,2461,2467,2473,2478,2484,2484,2489,2494,2498,2502,2507,2507,2514,2533,2539,2544,2544,2549,2556,2563,2568,2568,2570,2572,2573,2574,2574,2576,2579,2582,2587,2587,2596,2614,2623,2626,2626,2629,2630,2632,2633,2634,2634,2638,2646,2665,2678,2678,2683,2686,2690,2694,2694,2698,2702,2706,2711,2711,2717,2724,2730,2735,2735,2747,2752,2758,2768,2779,2779,2788,2792,2795,2797,2797,2800,2805,2813,2822,2822,2829,2838,2848,2856,2856,2862,2869,2877,2888,2888,2897,2905,2911,2915,2915,2919,2923,2928,2933,2938,2938,2942,2946,2953,2964,2964,2976,2983,2991,3008,3008,3019,3032,3041,3051,3051,3062,3071,3077,3082,3082,3086,3091,3096,3105,3120,3120,3126,3132,3138,3146,3146,3162,3182,3192,3197,3197,3200,3203,3205,3207,3207,3210,3213,3218,3225,3225,3259,3270,3280,3286,3288,3288,3292,3296,3303,3309,3309,3314,3321,3327,3337,3337,3356,3370,3388,3400,3400,3411,3425,3444,3459,3459,3464,3467,3470,3473,3479,3479,3496,3510,3517,3528,3528,3547,3575,3584,3590,3590,3596,3633,3633,3633,3632,3632,3633,3635,3641,3641,3648,3657,3705,3733,3735,3735,3737,3740,3751,3786,3786,3790,3793,3795,3803,3803,3841,3843,3845,3852,3852,3884,3893,3904,3910,3910,3950,3955,3959,4005,4006,4006,4007,4009,4012,4016,4016,4021,4028,4038,4054,4054,4072,4101,4114,4142,4142,4149,4154,4155,4155,4155,4158,4205,4213,4238,4259,4259,4272,4293,4317,4341,4341,4353,4360,4368,4374,4374,4379,4382,4427,4462,4462,4482,4499,4504,4510,4524,4524,4540,4575,4596,4602
0,0,0,0,0,0,0,0,0,0,0,0,0,0,0,0,0,0,0,0,0,0,0,0,0,0,0,0,0,0,0,0,0,0,0,0,0,0,0,0,0,0,0,0,0,0,0,0,0,0,0,0,0,0,0,0,0,0,0,0,0,0,0,0,0,0,0,0,0,0,0,0,0,0,0,0,0,0,0,0,0,0,0,0,0,0,0,0,0,0,0,0,0,0,0,0,0,0,0,0,0,0,0,0,0,0,0,0,0,0,0,0,0,0,0,0,0,0,0,0,0,0,0,0,0,0,0,0,0,0,0,0,0,0,0,0,0,0,0,0,0,0,0,0,0,0,0,0,0,0,0,0,0,0,0,0,0,0,0,0,0,0,0,0,0,0,0,0,0,0,0,0,0,0,0,0,0,0,0,0,0,0,0,0,0,0,0,0,0,0,0,0,0,0,0,0,0,0,0,0,0,0,0,0,0,0,0,0,0,0,0,0,0,0,0,0,0,0,0,0,0,0,0,0,0,0,0,0,0,0,0,0,0,0,0,0,0,0,0,0,0,0,0,0,0,0,0,0,0,0,0,0,0,0,0,0,0,0,0,0,0,0,0,0,0,0,0,0,0,0,0,0,0,0,0,0,0,0,0,0,0,0,0,0,0,0,0,0,0,0,0,0,0,0,0,1968,1968,1968,1978,1978,1993,2009,2009,2015,2018,2022,2025,2025,2029,2033,2040,2058,2058,2083,2090,2094,2097,2099,2101,2106,2110,2115,2119,2119,2124,2130,2135,2140,2140,2145,2148,2152,2154,2154,2157,2159,2161,2164,2164,2167,2170,2174,2178,2178,2183,2190,2207,2212,2212,2216,2218,2220,2223,2223,2226,2230,2234,2238,2242,2242,2246,2250,2254,2258,2258,2262,2266,2272,2276,2276,2280,2284,2287,2290,2290,2296,2305,2311,2315,2315,2318,2321,2324,2327,2327,2330,2333,2337,2340,2340,2344,2348,2351,2354,2357,2357,2360,2363,2366,2374,2374,2384,2395,2401,2406,2406,2410,2414,2418,2421,2421,2424,2428,2431,2434,2434,2439,2448,2459,2466,2466,2471,2476,2482,2487,2493,2493,2498,2503,2508,2514,2514,2525,2533,2539,2544,2544,2549,2564,2569,2573,2573,2575,2577,2579,2580,2580,2582,2584,2587,2594,2594,2612,2625,2629,2632,2635,2635,2636,2638,2640,2643,2643,2648,2660,2676,2683,2683,2687,2691,2695,2699,2699,2703,2707,2712,2717,2717,2725,2732,2739,2743,2743,2747,2752,2758,2768,2779,2779,2796,2799,2801,2804,2804,2807,2813,2821,2828,2828,2835,2842,2853,2862,2862,2869,2877,2889,2899,2899,2907,2912,2916,2920,2920,2924,2928,2934,2940,2944,2944,2948,2954,2969,2980,2980,2986,2993,3000,3008,3008,3019,3032,3041,3059,3059,3068,3077,3083,3090,3090,3094,3097,3104,3119,3128,3128,3135,3139,3146,3161,3161,3181,3190,3196,3201,3201,3205,3207,3209,3211,3211,3214,3218,3224,3256,3256,3271,3287,3294,3295,3298,3298,3301,3306,3309,3313,3313,3316,3321,3327,3337,3337,3356,3370,3400,3414,3414,3429,3441,3453,3463,3463,3468,3472,3475,3480,3495,3495,3509,3517,3526,3562,3562,3578,3585,3590,3597,3597,3635,3639,3639,3639,3639,3639,3640,3642,3646,3646,3651,3659,3705,3733,3735,3735,3737,3740,3751,3792,3792,3795,3797,3802,3840,3840,3845,3847,3851,3882,3882,3891,3914,3952,3953,3953,3954,3958,4006,4007,4009,4009,4010,4012,4016,4022,4022,4028,4035,4052,4077,4077,4096,4111,4139,4149,4149,4179,4193,4198,4200,4200,4202,4205,4213,4238,4259,4259,4272,4293,4335,4352,4352,4361,4367,4374,4380,4380,4385,4426,4436,4471,4471,4489,4504,4510,4522,4549,4549,4585,4594,4602,4612
0,0,0,0,0,0,0,0,0,0,0,0,0,0,0,0,0,0,0,0,0,0,0,0,0,0,0,0,0,0,0,0,0,0,0,0,0,0,0,0,0,0,0,0,0,0,0,0,0,0,0,0,0,0,0,0,0,0,0,0,0,0,0,0,0,0,0,0,0,0,0,0,0,0,0,0,0,0,0,0,0,0,0,0,0,0,0,0,0,0,0,0,0,0,0,0,0,0,0,0,0,0,0,0,0,0,0,0,0,0,0,0,0,0,0,0,0,0,0,0,0,0,0,0,0,0,0,0,0,0,0,0,0,0,0,0,0,0,0,0,0,0,0,0,0,0,0,0,0,0,0,0,0,0,0,0,0,0,0,0,0,0,0,0,0,0,0,0,0,0,0,0,0,0,0,0,0,0,0,0,0,0,0,0,0,0,0,0,0,0,0,0,0,0,0,0,0,0,0,0,0,0,0,0,0,0,0,0,0,0,0,0,0,0,0,0,0,0,0,0,0,0,0,0,0,0,0,0,0,0,0,0,0,0,0,0,0,0,0,0,0,0,0,0,0,0,0,0,0,0,0,0,0,0,0,0,0,0,0,0,0,0,0,0,0,0,0,0,0,0,0,0,0,0,0,0,0,0,0,0,0,0,0,0,0,0,0,0,0,0,0,0,0,0,0,1968,1968,1968,1978,1978,1993,2009,2007,2007,2015,2018,2022,2025,2025,2029,2036,2051,2058,2083,2090,2094,2097,2101,2101,2106,2110,2115,2120,2120,2126,2131,2136,2141,2141,2146,2150,2153,2156,2156,2159,2161,2163,2166,2166,2169,2172,2176,2180,2180,2186,2196,2207,2212,2212,2216,2218,2220,2223,2223,2231,2234,2238,2242,2247,2247,2250,2254,2258,2262,2262,2267,2272,2277,2282,2282,2286,2289,2293,2299,2299,2306,2312,2316,2320,2320,2323,2326,2329,2332,2332,2334,2337,2341,2344,2344,2348,2351,2354,2357,2360,2360,2363,2366,2369,2374,2374,2384,2395,2406,2411,2411,2416,2419,2423,2427,2427,2430,2433,2436,2441,2441,2447,2457,2465,2470,2470,2475,2480,2486,2492,2498,2498,2503,2508,2514,2523,2523,2534,2541,2546,2551,2551,2558,2564,2569,2573,2573,2575,2577,2579,2580,2580,2582,2584,2587,2594,2594,2621,2630,2634,2637,2640,2640,2642,2644,2647,2651,2651,2661,2672,2681,2687,2687,2691,2695,2700,2704,2704,2708,2712,2718,2725,2725,2733,2741,2746,2750,2750,2754,2760,2766,2776,2790,2790,2796,2799,2801,2804,2804,2807,2813,2821,2835,2835,2841,2849,2860,2868,2868,2876,2887,2901,2909,2909,2914,2918,2921,2925,2925,2929,2936,2943,2949,2953,2953,2962,2975,2985,2992,2992,2998,3005,3013,3023,3023,3030,3038,3048,3059,3059,3068,3077,3083,3090,3090,3094,3097,3111,3126,3136,3136,3141,3146,3152,3171,3171,3185,3194,3202,3207,3207,3211,3213,3215,3216,3216,3219,3225,3243,3271,3271,3290,3302,3303,3303,3305,3305,3308,3311,3313,3316,3316,3320,3327,3340,3352,3352,3364,3378,3400,3414,3414,3429,3449,3462,3469,3469,3473,3476,3483,3496,3507,3507,3516,3525,3564,3577,3577,3586,3590,3596,3632,3632,3641,3643,3643,3643,3643,3643,3644,3646,3651,3651,3659,3685,3733,3736,3738,3738,3741,3745,3785,3792,3792,3795,3797,3802,3840,3840,3845,3847,3851,3889,3889,3923,3951,3954,3955,3955,3963,4007,4009,4010,4012,4012,4013,4017,4022,4028,4028,4035,4068,4084,4092,4092,4105,4128,4146,4180,4180,4191,4197,4200,4201,4201,4204,4215,4250,4262,4275,4275,4293,4308,4335,4352,4352,4361,4367,4374,4380,4380,4385,4438,4463,4476,4476,4502,4510,4519,4551,4578,4578,4592,4601,4607,4633
0,0,0,0,0,0,0,0,0,0,0,0,0,0,0,0,0,0,0,0,0,0,0,0,0,0,0,0,0,0,0,0,0,0,0,0,0,0,0,0,0,0,0,0,0,0,0,0,0,0,0,0,0,0,0,0,0,0,0,0,0,0,0,0,0,0,0,0,0,0,0,0,0,0,0,0,0,0,0,0,0,0,0,0,0,0,0,0,0,0,0,0,0,0,0,0,0,0,0,0,0,0,0,0,0,0,0,0,0,0,0,0,0,0,0,0,0,0,0,0,0,0,0,0,0,0,0,0,0,0,0,0,0,0,0,0,0,0,0,0,0,0,0,0,0,0,0,0,0,0,0,0,0,0,0,0,0,0,0,0,0,0,0,0,0,0,0,0,0,0,0,0,0,0,0,0,0,0,0,0,0,0,0,0,0,0,0,0,0,0,0,0,0,0,0,0,0,0,0,0,0,0,0,0,0,0,0,0,0,0,0,0,0,0,0,0,0,0,0,0,0,0,0,0,0,0,0,0,0,0,0,0,0,0,0,0,0,0,0,0,0,0,0,0,0,0,0,0,0,0,0,0,0,0,0,0,0,0,0,0,0,0,0,0,0,0,0,0,0,0,0,0,0,0,0,0,0,0,0,0,0,0,0,0,0,0,0,0,0,0,0,0,0,0,0,0,0,0,1978,1967,1967,1984,2007,2007,2015,2018,2014,2014,2014,2022,2029,2039,2058,2058,2085,2090,2095,2100,2100,2104,2110,2115,2120,2120,2126,2131,2137,2142,2142,2147,2151,2154,2157,2157,2160,2162,2165,2168,2168,2171,2174,2178,2182,2182,2189,2203,2213,2218,2218,2221,2223,2225,2228,2228,2231,2234,2238,2242,2247,2247,2250,2259,2263,2268,2268,2272,2278,2284,2288,2288,2292,2297,2301,2307,2307,2314,2318,2321,2324,2324,2327,2330,2333,2336,2336,2339,2342,2345,2348,2351,2351,2355,2358,2360,2363,2363,2366,2369,2373,2380,2380,2392,2400,2406,2411,2411,2416,2419,2423,2427,2427,2436,2439,2443,2448,2448,2455,2463,2470,2475,2475,2479,2484,2490,2497,2503,2503,2508,2515,2523,2535,2535,2542,2547,2552,2558,2558,2564,2570,2574,2577,2577,2580,2582,2584,2586,2586,2587,2590,2592,2599,2599,2621,2635,2638,2642,2645,2645,2647,2651,2656,2662,2662,2672,2680,2686,2691,2691,2695,2700,2704,2709,2709,2713,2719,2726,2735,2735,2743,2750,2754,2758,2758,2762,2768,2775,2790,2799,2799,2802,2805,2807,2810,2810,2815,2821,2828,2835,2835,2841,2849,2860,2868,2868,2883,2900,2913,2917,2917,2920,2923,2926,2930,2936,2936,2943,2950,2956,2964,2964,2978,2988,2994,2999,2999,3007,3015,3023,3030,3030,3036,3044,3056,3064,3064,3072,3082,3092,3098,3098,3101,3106,3111,3126,3136,3136,3141,3146,3152,3182,3182,3192,3200,3210,3215,3215,3217,3219,3220,3222,3222,3226,3238,3269,3292,3292,3309,3313,3313,3313,3319,3319,3329,3351,3357,3358,3353,3351,3351,3356,3365,3365,3376,3398,3415,3432,3432,3440,3449,3462,3469,3469,3473,3476,3483,3496,3507,3507,3531,3565,3577,3586,3586,3592,3598,3610,3642,3642,3646,3648,3649,3649,3649,3649,3651,3653,3666,3666,3679,3688,3737,3740,3742,3742,3744,3748,3793,3796,3796,3799,3805,3835,3847,3847,3851,3854,3867,3889,3889,3923,3956,3990,4000,4000,4006,4010,4012,4013,4015,4015,4018,4022,4029,4083,4083,4085,4087,4090,4102,4102,4123,4142,4178,4189,4189,4205,4217,4232,4239,4239,4245,4250,4257,4271,4298,4298,4309,4328,4351,4360,4360,4368,4375,4381,4394,4394,4419,4438,4463,4476,4476,4502,4510,4519,4577,4590,4590,4603,4616,4638,4674
0,0,0,0,0,0,0,0,0,0,0,0,0,0,0,0,0,0,0,0,0,0,0,0,0,0,0,0,0,0,0,0,0,0,0,0,0,0,0,0,0,0,0,0,0,0,0,0,0,0,0,0,0,0,0,0,0,0,0,0,0,0,0,0,0,0,0,0,0,0,0,0,0,0,0,0,0,0,0,0,0,0,0,0,0,0,0,0,0,0,0,0,0,0,0,0,0,0,0,0,0,0,0,0,0,0,0,0,0,0,0,0,0,0,0,0,0,0,0,0,0,0,0,0,0,0,0,0,0,0,0,0,0,0,0,0,0,0,0,0,0,0,0,0,0,0,0,0,0,0,0,0,0,0,0,0,0,0,0,0,0,0,0,0,0,0,0,0,0,0,0,0,0,0,0,0,0,0,0,0,0,0,0,0,0,0,0,0,0,0,0,0,0,0,0,0,0,0,0,0,0,0,0,0,0,0,0,0,0,0,0,0,0,0,0,0,0,0,0,0,0,0,0,0,0,0,0,0,0,0,0,0,0,0,0,0,0,0,0,0,0,0,0,0,0,0,0,0,0,0,0,0,0,0,0,0,0,0,0,0,0,0,0,0,0,0,0,0,0,0,0,0,0,0,0,0,0,0,0,0,0,0,0,0,0,0,0,0,0,0,0,0,0,0,0,0,0,0,0,1967,1967,1965,1965,1965,1981,1992,2001,2014,2014,2022,2029,2039,2044,2044,2071,2085,2091,2096,2096,2102,2109,2114,2120,2120,2126,2131,2137,2142,2142,2147,2151,2154,2158,2158,2160,2163,2166,2169,2169,2172,2176,2180,2184,2184,2196,2214,2218,2222,2222,2225,2227,2230,2233,2233,2236,2239,2243,2247,2251,2251,2255,2259,2263,2268,2268,2272,2278,2289,2294,2294,2299,2303,2309,2315,2315,2319,2323,2326,2329,2329,2332,2335,2338,2340,2340,2343,2346,2349,2352,2355,2355,2358,2361,2364,2367,2367,2370,2373,2378,2386,2386,2397,2405,2411,2416,2416,2421,2425,2429,2432,2432,2436,2439,2443,2448,2448,2455,2463,2474,2479,2479,2484,2489,2497,2504,2509,2509,2514,2522,2535,2543,2543,2548,2553,2558,2564,2564,2569,2574,2578,2581,2581,2584,2586,2588,2590,2590,2593,2595,2599,2611,2611,2630,2635,2638,2642,2645,2645,2647,2651,2656,2662,2662,2679,2685,2689,2694,2694,2699,2704,2709,2714,2714,2720,2727,2736,2746,2746,2755,2760,2763,2766,2766,2770,2776,2788,2799,2803,2803,2806,2809,2812,2816,2816,2821,2828,2834,2840,2840,2845,2853,2865,2874,2874,2883,2900,2913,2924,2924,2926,2928,2932,2936,2943,2943,2951,2959,2971,2983,2983,2992,2997,3001,3006,3006,3014,3023,3030,3035,3035,3041,3053,3062,3069,3069,3077,3095,3101,3105,3105,3108,3112,3122,3136,3142,3142,3147,3152,3164,3182,3182,3192,3200,3210,3221,3221,3223,3225,3226,3228,3228,3237,3261,3282,3312,3312,3318,3320,3323,3327,3338,3338,3350,3359,3362,3363,3362,3361,3361,3366,3375,3375,3387,3411,3434,3441,3441,3447,3461,3471,3475,3475,3479,3485,3499,3510,3518,3518,3531,3565,3585,3594,3594,3600,3607,3635,3648,3648,3651,3653,3654,3656,3656,3659,3668,3675,3680,3680,3685,3736,3740,3743,3745,3745,3747,3789,3798,3803,3803,3810,3829,3848,3854,3854,3857,3863,3892,3926,3926,3949,3956,3990,4000,4000,4006,4010,4012,4013,4015,4015,4018,4022,4029,4084,4084,4086,4089,4101,4125,4125,4131,4163,4185,4210,4210,4220,4231,4237,4243,4243,4247,4255,4279,4304,4311,4311,4321,4343,4360,4368,4368,4377,4385,4403,4425,4425,4436,4465,4481,4501,4501,4510,4534,4561,4577,4590,4590,4603,4616,4638,4689
0,0,0,0,0,0,0,0,0,0,0,0,0,0,0,0,0,0,0,0,0,0,0,0,0,0,0,0,0,0,0,0,0,0,0,0,0,0,0,0,0,0,0,0,0,0,0,0,0,0,0,0,0,0,0,0,0,0,0,0,0,0,0,0,0,0,0,0,0,0,0,0,0,0,0,0,0,0,0,0,0,0,0,0,0,0,0,0,0,0,0,0,0,0,0,0,0,0,0,0,0,0,0,0,0,0,0,0,0,0,0,0,0,0,0,0,0,0,0,0,0,0,0,0,0,0,0,0,0,0,0,0,0,0,0,0,0,0,0,0,0,0,0,0,0,0,0,0,0,0,0,0,0,0,0,0,0,0,0,0,0,0,0,0,0,0,0,0,0,0,0,0,0,0,0,0,0,0,0,0,0,0,0,0,0,0,0,0,0,0,0,0,0,0,0,0,0,0,0,0,0,0,0,0,0,0,0,0,0,0,0,0,0,0,0,0,0,0,0,0,0,0,0,0,0,0,0,0,0,0,0,0,0,0,0,0,0,0,0,0,0,0,0,0,0,0,0,0,0,0,0,0,0,0,0,0,0,0,0,0,0,0,0,0,0,0,0,0,0,0,0,0,0,0,0,0,0,0,0,0,0,0,0,0,0,0,0,0,0,0,0,0,0,0,0,0,0,0,0,0,0,1965,1965,1965,1974,1974,1984,1989,1989,2005,2018,2025,2044,2044,2071,2077,2086,2092,2092,2099,2106,2113,2119,2119,2125,2130,2136,2141,2141,2146,2150,2154,2157,2157,2160,2163,2166,2169,2169,2172,2177,2180,2185,2185,2202,2218,2222,2225,2225,2228,2231,2234,2237,2240,2240,2244,2248,2252,2257,2257,2261,2265,2269,2273,2273,2278,2284,2289,2294,2294,2299,2303,2309,2320,2320,2323,2327,2330,2333,2333,2336,2339,2342,2345,2345,2348,2350,2353,2356,2359,2359,2362,2365,2368,2371,2371,2374,2378,2383,2392,2392,2403,2410,2416,2422,2422,2427,2431,2436,2439,2439,2443,2446,2450,2456,2456,2463,2469,2474,2479,2479,2484,2489,2497,2511,2516,2516,2522,2534,2543,2549,2549,2553,2558,2563,2569,2569,2574,2579,2582,2585,2585,2588,2591,2593,2595,2595,2597,2600,2604,2618,2618,2634,2639,2643,2646,2650,2650,2655,2661,2668,2674,2674,2679,2685,2689,2694,2694,2699,2704,2709,2720,2720,2727,2738,2754,2763,2763,2767,2770,2772,2776,2780,2780,2788,2798,2803,2807,2807,2810,2814,2817,2822,2822,2829,2835,2840,2845,2845,2852,2861,2872,2881,2881,2897,2915,2921,2924,2924,2926,2928,2932,2936,2943,2943,2951,2959,2986,2993,2993,2998,3002,3006,3012,3012,3023,3031,3036,3041,3041,3048,3060,3067,3071,3071,3082,3104,3108,3111,3111,3114,3119,3128,3141,3148,3148,3153,3158,3171,3188,3188,3197,3207,3217,3221,3221,3223,3225,3226,3228,3228,3237,3261,3310,3320,3320,3324,3328,3332,3338,3345,3345,3356,3363,3366,3367,3367,3367,3369,3374,3383,3383,3413,3434,3444,3459,3459,3470,3475,3480,3489,3489,3509,3521,3527,3535,3548,3548,3564,3574,3585,3594,3594,3600,3607,3635,3653,3653,3656,3654,3654,3656,3656,3659,3676,3680,3687,3687,3730,3740,3743,3746,3747,3747,3749,3798,3803,3809,3809,3829,3850,3858,3860,3860,3865,3896,3919,3938,3938,3967,3988,3997,4005,4005,4011,4014,4016,4017,4019,4019,4023,4032,4083,4084,4084,4086,4089,4101,4125,4125,4131,4182,4211,4221,4221,4231,4284,4287,4289,4289,4294,4302,4306,4310,4318,4318,4335,4360,4371,4387,4387,4418,4423,4429,4439,4439,4452,4473,4504,4545,4545,4551,4562,4573,4598,4618,4618,4629,4639,4673,4689
0,0,0,0,0,0,0,0,0,0,0,0,0,0,0,0,0,0,0,0,0,0,0,0,0,0,0,0,0,0,0,0,0,0,0,0,0,0,0,0,0,0,0,0,0,0,0,0,0,0,0,0,0,0,0,0,0,0,0,0,0,0,0,0,0,0,0,0,0,0,0,0,0,0,0,0,0,0,0,0,0,0,0,0,0,0,0,0,0,0,0,0,0,0,0,0,0,0,0,0,0,0,0,0,0,0,0,0,0,0,0,0,0,0,0,0,0,0,0,0,0,0,0,0,0,0,0,0,0,0,0,0,0,0,0,0,0,0,0,0,0,0,0,0,0,0,0,0,0,0,0,0,0,0,0,0,0,0,0,0,0,0,0,0,0,0,0,0,0,0,0,0,0,0,0,0,0,0,0,0,0,0,0,0,0,0,0,0,0,0,0,0,0,0,0,0,0,0,0,0,0,0,0,0,0,0,0,0,0,0,0,0,0,0,0,0,0,0,0,0,0,0,0,0,0,0,0,0,0,0,0,0,0,0,0,0,0,0,0,0,0,0,0,0,0,0,0,0,0,0,0,0,0,0,0,0,0,0,0,0,0,0,0,0,0,0,0,0,0,0,0,0,0,0,0,0,0,0,0,0,0,0,0,0,0,0,0,0,0,0,0,0,0,0,0,0,0,0,0,0,0,0,0,0,1974,1974,1984,1989,1975,1975,1991,2011,2028,2028,2052,2077,2086,2086,2086,2093,2101,2110,2117,2117,2123,2128,2133,2139,2139,2144,2148,2152,2156,2156,2159,2162,2165,2168,2168,2172,2177,2180,2185,2185,2215,2221,2224,2227,2227,2231,2234,2238,2241,2245,2245,2249,2253,2258,2262,2262,2267,2271,2275,2279,2279,2284,2290,2295,2301,2301,2306,2311,2315,2320,2320,2323,2327,2330,2333,2333,2336,2339,2342,2349,2349,2352,2355,2357,2360,2363,2363,2366,2369,2372,2375,2375,2378,2382,2388,2397,2397,2407,2416,2423,2428,2428,2434,2439,2443,2447,2447,2450,2453,2457,2462,2462,2469,2474,2479,2484,2490,2490,2498,2505,2511,2516,2516,2522,2543,2549,2553,2553,2558,2562,2568,2574,2574,2579,2583,2586,2589,2589,2592,2595,2597,2600,2600,2602,2606,2612,2629,2638,2638,2643,2646,2652,2661,2661,2670,2674,2677,2680,2680,2684,2688,2692,2697,2697,2703,2709,2714,2720,2720,2727,2738,2766,2769,2769,2773,2776,2778,2783,2789,2789,2797,2802,2806,2810,2810,2813,2817,2821,2829,2829,2836,2841,2845,2850,2850,2857,2869,2878,2889,2889,2914,2925,2927,2929,2929,2932,2934,2938,2943,2950,2950,2960,2972,2986,2993,2993,2998,3002,3006,3012,3012,3033,3038,3043,3048,3048,3057,3066,3071,3080,3080,3104,3111,3113,3116,3116,3119,3125,3136,3148,3153,3153,3158,3169,3186,3196,3196,3204,3217,3224,3227,3227,3229,3230,3232,3236,3236,3259,3281,3310,3320,3320,3324,3328,3332,3345,3354,3354,3364,3369,3372,3373,3373,3373,3374,3379,3421,3421,3436,3448,3462,3472,3472,3476,3484,3498,3519,3519,3530,3535,3540,3549,3564,3564,3574,3585,3596,3603,3603,3607,3615,3646,3653,3653,3656,3658,3660,3662,3662,3669,3676,3680,3687,3687,3730,3743,3746,3748,3750,3750,3795,3803,3809,3857,3857,3861,3864,3867,3875,3875,3896,3908,3935,3971,3971,3984,3995,4006,4013,4013,4016,4018,4020,4021,4025,4025,4039,4081,4085,4087,4087,4121,4123,4125,4128,4128,4163,4182,4211,4221,4221,4231,4285,4288,4292,4292,4299,4306,4310,4316,4329,4329,4373,4382,4398,4421,4421,4425,4430,4440,4462,4462,4480,4509,4544,4548,4548,4562,4572,4614,4626,4632,4632,4643,4676,4695,4702
0,0,0,0,0,0,0,0,0,0,0,0,0,0,0,0,0,0,0,0,0,0,0,0,0,0,0,0,0,0,0,0,0,0,0,0,0,0,0,0,0,0,0,0,0,0,0,0,0,0,0,0,0,0,0,0,0,0,0,0,0,0,0,0,0,0,0,0,0,0,0,0,0,0,0,0,0,0,0,0,0,0,0,0,0,0,0,0,0,0,0,0,0,0,0,0,0,0,0,0,0,0,0,0,0,0,0,0,0,0,0,0,0,0,0,0,0,0,0,0,0,0,0,0,0,0,0,0,0,0,0,0,0,0,0,0,0,0,0,0,0,0,0,0,0,0,0,0,0,0,0,0,0,0,0,0,0,0,0,0,0,0,0,0,0,0,0,0,0,0,0,0,0,0,0,0,0,0,0,0,0,0,0,0,0,0,0,0,0,0,0,0,0,0,0,0,0,0,0,0,0,0,0,0,0,0,0,0,0,0,0,0,0,0,0,0,0,0,0,0,0,0,0,0,0,0,0,0,0,0,0,0,0,0,0,0,0,0,0,0,0,0,0,0,0,0,0,0,0,0,0,0,0,0,0,0,0,0,0,0,0,0,0,0,0,0,0,0,0,0,0,0,0,0,0,0,0,0,0,0,0,0,0,0,0,0,0,0,0,0,0,0,0,0,0,0,0,0,0,0,0,0,0,0,0,0,0,0,1975,1975,1991,2003,2003,2003,2015,2043,2075,2086,2086,2093,2101,2103,2113,2113,2119,2125,2130,2135,2135,2141,2146,2149,2152,2152,2155,2158,2162,2166,2166,2171,2176,2180,2186,2186,2217,2223,2226,2230,2230,2233,2237,2241,2245,2249,2249,2254,2259,2264,2269,2269,2273,2277,2281,2285,2285,2290,2295,2301,2307,2307,2312,2316,2320,2324,2324,2327,2330,2333,2337,2337,2340,2343,2346,2349,2349,2352,2355,2357,2360,2363,2363,2366,2369,2372,2375,2375,2378,2387,2394,2404,2404,2415,2423,2432,2438,2438,2443,2447,2451,2453,2453,2456,2459,2463,2468,2468,2473,2480,2485,2492,2501,2501,2508,2513,2517,2522,2522,2533,2543,2549,2553,2553,2558,2562,2573,2579,2579,2583,2587,2590,2593,2593,2596,2599,2601,2604,2604,2607,2611,2620,2635,2642,2642,2647,2652,2662,2672,2672,2677,2680,2682,2685,2685,2688,2691,2695,2700,2700,2706,2713,2721,2729,2729,2741,2759,2766,2769,2769,2773,2776,2778,2783,2789,2789,2797,2805,2809,2813,2813,2816,2820,2826,2836,2836,2844,2847,2851,2856,2856,2866,2877,2888,2913,2913,2927,2931,2933,2935,2935,2937,2940,2944,2950,2959,2959,2973,2986,2994,2999,2999,3002,3006,3010,3020,3020,3033,3038,3043,3048,3048,3057,3066,3071,3103,3103,3112,3115,3118,3120,3124,3124,3130,3144,3155,3161,3161,3170,3186,3195,3202,3202,3213,3225,3230,3232,3232,3234,3236,3240,3257,3257,3279,3296,3318,3325,3325,3330,3334,3339,3345,3354,3354,3364,3369,3372,3373,3373,3373,3374,3379,3434,3434,3447,3463,3474,3483,3483,3499,3519,3534,3539,3539,3542,3547,3554,3566,3574,3574,3584,3600,3606,3609,3609,3615,3632,3654,3659,3659,3661,3663,3666,3673,3673,3687,3703,3711,3724,3724,3737,3743,3746,3748,3750,3750,3795,3803,3809,3864,3864,3869,3872,3881,3896,3896,3907,3931,3969,3980,3980,3994,4008,4016,4019,4019,4022,4023,4025,4029,4047,4047,4069,4086,4092,4121,4121,4124,4125,4127,4165,4165,4172,4197,4222,4237,4237,4283,4285,4288,4292,4292,4299,4306,4310,4316,4329,4329,4383,4392,4424,4428,4428,4432,4442,4455,4475,4475,4508,4541,4546,4572,4572,4627,4629,4630,4635,4656,4656,4678,4691,4705,4710
0,0,0,0,0,0,0,0,0,0,0,0,0,0,0,0,0,0,0,0,0,0,0,0,0,0,0,0,0,0,0,0,0,0,0,0,0,0,0,0,0,0,0,0,0,0,0,0,0,0,0,0,0,0,0,0,0,0,0,0,0,0,0,0,0,0,0,0,0,0,0,0,0,0,0,0,0,0,0,0,0,0,0,0,0,0,0,0,0,0,0,0,0,0,0,0,0,0,0,0,0,0,0,0,0,0,0,0,0,0,0,0,0,0,0,0,0,0,0,0,0,0,0,0,0,0,0,0,0,0,0,0,0,0,0,0,0,0,0,0,0,0,0,0,0,0,0,0,0,0,0,0,0,0,0,0,0,0,0,0,0,0,0,0,0,0,0,0,0,0,0,0,0,0,0,0,0,0,0,0,0,0,0,0,0,0,0,0,0,0,0,0,0,0,0,0,0,0,0,0,0,0,0,0,0,0,0,0,0,0,0,0,0,0,0,0,0,0,0,0,0,0,0,0,0,0,0,0,0,0,0,0,0,0,0,0,0,0,0,0,0,0,0,0,0,0,0,0,0,0,0,0,0,0,0,0,0,0,0,0,0,0,0,0,0,0,0,0,0,0,0,0,0,0,0,0,0,0,0,0,0,0,0,0,0,0,0,0,0,0,0,0,0,0,0,0,0,0,0,0,0,0,0,0,0,0,0,0,1975,1972,1972,1986,2003,2003,2015,2015,2026,2040,2040,2062,2092,2103,2113,2113,2119,2125,2130,2130,2130,2136,2142,2145,2148,2148,2151,2154,2157,2162,2162,2169,2174,2180,2191,2191,2217,2223,2226,2230,2230,2233,2237,2244,2249,2254,2254,2259,2264,2269,2275,2275,2279,2284,2287,2291,2291,2296,2301,2307,2312,2312,2316,2320,2324,2327,2327,2330,2333,2337,2340,2340,2343,2347,2350,2353,2356,2356,2359,2362,2365,2368,2368,2371,2374,2376,2379,2379,2383,2387,2394,2404,2404,2423,2433,2440,2444,2444,2448,2453,2455,2458,2458,2461,2465,2471,2477,2477,2484,2490,2497,2504,2510,2510,2515,2519,2524,2530,2530,2541,2549,2553,2558,2558,2562,2567,2573,2579,2579,2583,2587,2590,2593,2593,2596,2599,2601,2604,2604,2607,2611,2630,2641,2646,2646,2652,2662,2674,2679,2679,2682,2685,2687,2689,2689,2692,2695,2698,2704,2704,2711,2720,2729,2743,2743,2759,2767,2770,2774,2774,2777,2781,2785,2791,2796,2796,2801,2805,2809,2813,2813,2816,2820,2826,2836,2836,2844,2847,2858,2866,2866,2878,2890,2913,2926,2926,2932,2936,2938,2941,2941,2943,2946,2950,2956,2968,2968,2987,2996,3000,3003,3003,3007,3010,3016,3032,3032,3041,3045,3050,3057,3057,3065,3072,3080,3103,3103,3112,3115,3118,3120,3124,3124,3141,3159,3168,3175,3175,3185,3196,3202,3212,3212,3224,3231,3235,3237,3237,3240,3243,3260,3280,3280,3294,3312,3324,3331,3331,3335,3340,3345,3351,3363,3363,3371,3378,3399,3412,3412,3417,3421,3425,3434,3434,3447,3463,3490,3507,3507,3524,3536,3541,3544,3544,3550,3558,3570,3577,3586,3586,3600,3608,3612,3615,3615,3620,3647,3660,3665,3665,3668,3671,3680,3694,3694,3704,3710,3720,3734,3734,3746,3749,3750,3752,3792,3792,3800,3808,3859,3864,3864,3869,3872,3881,3896,3896,3927,3965,3981,3994,3994,4008,4016,4020,4023,4023,4027,4030,4035,4046,4063,4063,4087,4095,4117,4124,4124,4126,4161,4165,4170,4170,4200,4221,4239,4281,4281,4286,4290,4326,4328,4328,4338,4377,4378,4380,4381,4381,4383,4392,4424,4428,4428,4432,4442,4455,4501,4501,4537,4543,4580,4628,4628,4629,4630,4636,4666,4681,4681,4692,4712,4720,4758
0,0,0,0,0,0,0,0,0,0,0,0,0,0,0,0,0,0,0,0,0,0,0,0,0,0,0,0,0,0,0,0,0,0,0,0,0,0,0,0,0,0,0,0,0,0,0,0,0,0,0,0,0,0,0,0,0,0,0,0,0,0,0,0,0,0,0,0,0,0,0,0,0,0,0,0,0,0,0,0,0,0,0,0,0,0,0,0,0,0,0,0,0,0,0,0,0,0,0,0,0,0,0,0,0,0,0,0,0,0,0,0,0,0,0,0,0,0,0,0,0,0,0,0,0,0,0,0,0,0,0,0,0,0,0,0,0,0,0,0,0,0,0,0,0,0,0,0,0,0,0,0,0,0,0,0,0,0,0,0,0,0,0,0,0,0,0,0,0,0,0,0,0,0,0,0,0,0,0,0,0,0,0,0,0,0,0,0,0,0,0,0,0,0,0,0,0,0,0,0,0,0,0,0,0,0,0,0,0,0,0,0,0,0,0,0,0,0,0,0,0,0,0,0,0,0,0,0,0,0,0,0,0,0,0,0,0,0,0,0,0,0,0,0,0,0,0,0,0,0,0,0,0,0,0,0,0,0,0,0,0,0,0,0,0,0,0,0,0,0,0,0,0,0,0,0,0,0,0,0,0,0,0,0,0,0,0,0,0,0,0,0,0,0,0,0,0,0,0,0,0,0,0,0,0,0,0,0,0,1972,1968,1968,1986,1986,2004,2015,2026,2040,2036,2036,2051,2090,2101,2101,2113,2119,2124,2130,2130,2136,2142,2145,2148,2148,2151,2154,2157,2162,2154,2154,2168,2179,2192,2220,2220,2224,2227,2231,2235,2235,2240,2244,2249,2254,2254,2259,2264,2276,2281,2281,2286,2289,2293,2297,2297,2302,2307,2312,2316,2316,2320,2323,2327,2330,2330,2333,2336,2340,2343,2343,2347,2351,2354,2358,2361,2361,2364,2368,2371,2374,2374,2377,2379,2381,2384,2384,2388,2393,2400,2410,2410,2423,2433,2440,2449,2449,2453,2457,2460,2464,2464,2469,2486,2496,2498,2498,2500,2503,2507,2512,2516,2516,2520,2525,2530,2539,2539,2548,2553,2558,2562,2562,2567,2573,2578,2583,2583,2587,2591,2594,2597,2597,2600,2603,2606,2609,2609,2613,2619,2630,2641,2646,2646,2660,2671,2680,2685,2685,2688,2690,2691,2693,2693,2695,2698,2702,2708,2708,2719,2731,2745,2759,2759,2767,2771,2775,2778,2778,2782,2787,2792,2797,2801,2801,2805,2808,2811,2815,2815,2819,2823,2836,2848,2848,2851,2855,2858,2866,2866,2878,2890,2926,2932,2932,2937,2940,2943,2946,2946,2949,2952,2956,2966,2986,2986,2997,3002,3006,3008,3008,3011,3016,3030,3043,3043,3051,3054,3058,3066,3066,3076,3084,3098,3111,3111,3115,3118,3121,3125,3129,3129,3141,3159,3168,3175,3175,3198,3206,3213,3223,3223,3231,3236,3240,3243,3243,3248,3262,3284,3294,3294,3304,3320,3329,3335,3335,3340,3346,3351,3360,3370,3370,3380,3398,3410,3415,3415,3420,3423,3432,3451,3451,3467,3478,3490,3507,3507,3524,3544,3549,3565,3565,3576,3579,3581,3585,3599,3599,3611,3614,3617,3621,3621,3638,3661,3669,3677,3677,3683,3690,3696,3703,3703,3713,3740,3750,3754,3754,3759,3770,3782,3788,3795,3795,3809,3859,3866,3874,3874,3879,3884,3892,3904,3904,3927,3965,3995,4009,4009,4015,4019,4023,4026,4026,4030,4035,4044,4058,4090,4090,4097,4108,4125,4132,4132,4159,4165,4167,4204,4204,4216,4236,4250,4289,4289,4294,4322,4329,4342,4342,4376,4378,4380,4381,4384,4384,4389,4428,4432,4435,4435,4444,4458,4471,4501,4501,4537,4543,4585,4629,4629,4676,4676,4677,4681,4687,4687,4720,4726,4749,4767
0,0,0,0,0,0,0,0,0,0,0,0,0,0,0,0,0,0,0,0,0,0,0,0,0,0,0,0,0,0,0,0,0,0,0,0,0,0,0,0,0,0,0,0,0,0,0,0,0,0,0,0,0,0,0,0,0,0,0,0,0,0,0,0,0,0,0,0,0,0,0,0,0,0,0,0,0,0,0,0,0,0,0,0,0,0,0,0,0,0,0,0,0,0,0,0,0,0,0,0,0,0,0,0,0,0,0,0,0,0,0,0,0,0,0,0,0,0,0,0,0,0,0,0,0,0,0,0,0,0,0,0,0,0,0,0,0,0,0,0,0,0,0,0,0,0,0,0,0,0,0,0,0,0,0,0,0,0,0,0,0,0,0,0,0,0,0,0,0,0,0,0,0,0,0,0,0,0,0,0,0,0,0,0,0,0,0,0,0,0,0,0,0,0,0,0,0,0,0,0,0,0,0,0,0,0,0,0,0,0,0,0,0,0,0,0,0,0,0,0,0,0,0,0,0,0,0,0,0,0,0,0,0,0,0,0,0,0,0,0,0,0,0,0,0,0,0,0,0,0,0,0,0,0,0,0,0,0,0,0,0,0,0,0,0,0,0,0,0,0,0,0,0,0,0,0,0,0,0,0,0,0,0,0,0,0,0,0,0,0,0,0,0,0,0,0,0,0,0,0,0,0,0,0,0,0,0,0,0,0,1968,1960,1960,1976,1976,2001,2015,2025,2025,2036,2051,2054,2088,2088,2103,2112,2116,2121,2121,2127,2135,2139,2142,2142,2143,2143,2143,2144,2154,2154,2168,2179,2198,2222,2222,2225,2228,2233,2237,2237,2242,2248,2253,2258,2258,2264,2270,2276,2281,2281,2286,2289,2293,2302,2302,2307,2312,2316,2320,2320,2323,2327,2330,2333,2333,2336,2339,2343,2346,2346,2350,2354,2358,2362,2366,2366,2370,2374,2377,2380,2380,2382,2384,2386,2389,2389,2394,2401,2409,2422,2422,2434,2440,2445,2449,2449,2453,2457,2460,2464,2464,2469,2497,2501,2503,2503,2506,2509,2512,2517,2521,2521,2526,2530,2536,2545,2545,2553,2558,2562,2567,2567,2572,2578,2583,2588,2588,2592,2595,2598,2601,2601,2604,2608,2611,2616,2616,2621,2630,2638,2645,2651,2651,2660,2671,2680,2685,2685,2693,2695,2697,2698,2698,2700,2702,2707,2718,2718,2731,2743,2758,2768,2768,2772,2776,2779,2783,2783,2787,2793,2798,2802,2805,2805,2808,2811,2814,2817,2817,2822,2833,2854,2862,2862,2864,2867,2871,2879,2879,2891,2914,2926,2932,2932,2940,2944,2948,2951,2954,2954,2957,2964,2987,2999,2999,3005,3008,3011,3014,3014,3017,3025,3042,3058,3058,3069,3070,3072,3082,3082,3089,3098,3109,3115,3115,3119,3122,3125,3130,3142,3142,3163,3171,3178,3189,3189,3198,3206,3213,3223,3223,3231,3236,3240,3265,3265,3276,3284,3291,3304,3304,3317,3327,3334,3339,3339,3345,3351,3360,3369,3381,3381,3397,3410,3416,3423,3423,3434,3449,3459,3471,3471,3483,3498,3513,3529,3529,3539,3544,3549,3565,3565,3576,3579,3581,3585,3599,3599,3619,3621,3625,3632,3632,3652,3671,3680,3688,3688,3694,3699,3706,3718,3718,3741,3750,3755,3761,3761,3770,3781,3785,3791,3823,3823,3856,3867,3878,3882,3882,3887,3892,3901,3918,3918,3945,3979,3995,4009,4009,4015,4019,4023,4026,4026,4030,4035,4044,4058,4097,4097,4106,4125,4136,4155,4155,4164,4202,4208,4213,4213,4233,4248,4287,4295,4295,4317,4325,4370,4375,4375,4377,4379,4382,4406,4425,4425,4430,4434,4437,4444,4444,4458,4470,4502,4533,4533,4543,4581,4585,4629,4629,4676,4676,4677,4681,4687,4687,4733,4742,4758,4784
0,0,0,0,0,0,0,0,0,0,0,0,0,0,0,0,0,0,0,0,0,0,0,0,0,0,0,0,0,0,0,0,0,0,0,0,0,0,0,0,0,0,0,0,0,0,0,0,0,0,0,0,0,0,0,0,0,0,0,0,0,0,0,0,0,0,0,0,0,0,0,0,0,0,0,0,0,0,0,0,0,0,0,0,0,0,0,0,0,0,0,0,0,0,0,0,0,0,0,0,0,0,0,0,0,0,0,0,0,0,0,0,0,0,0,0,0,0,0,0,0,0,0,0,0,0,0,0,0,0,0,0,0,0,0,0,0,0,0,0,0,0,0,0,0,0,0,0,0,0,0,0,0,0,0,0,0,0,0,0,0,0,0,0,0,0,0,0,0,0,0,0,0,0,0,0,0,0,0,0,0,0,0,0,0,0,0,0,0,0,0,0,0,0,0,0,0,0,0,0,0,0,0,0,0,0,0,0,0,0,0,0,0,0,0,0,0,0,0,0,0,0,0,0,0,0,0,0,0,0,0,0,0,0,0,0,0,0,0,0,0,0,0,0,0,0,0,0,0,0,0,0,0,0,0,0,0,0,0,0,0,0,0,0,0,0,0,0,0,0,0,0,0,0,0,0,0,0,0,0,0,0,0,0,0,0,0,0,0,0,0,0,0,0,0,0,0,0,0,0,0,0,0,0,0,0,0,0,0,0,0,1960,1960,1976,1976,2001,1979,1979,2019,2019,2035,2054,2088,2083,2083,2103,2111,2114,2114,2119,2125,2132,2134,2135,2134,2133,2133,2134,2136,2136,2147,2174,2198,2222,2222,2226,2229,2234,2239,2239,2245,2251,2257,2263,2263,2270,2276,2282,2287,2287,2291,2295,2299,2302,2302,2307,2312,2316,2320,2320,2323,2329,2332,2336,2336,2339,2342,2346,2349,2354,2354,2358,2363,2368,2373,2373,2377,2381,2384,2387,2387,2389,2391,2394,2398,2398,2404,2412,2420,2431,2431,2439,2445,2449,2453,2453,2457,2461,2465,2471,2471,2487,2497,2501,2503,2503,2506,2509,2517,2521,2526,2526,2531,2536,2542,2551,2551,2557,2562,2566,2572,2572,2577,2582,2588,2592,2592,2596,2599,2602,2605,2605,2609,2614,2619,2625,2625,2631,2637,2644,2650,2659,2659,2670,2679,2685,2690,2690,2693,2695,2697,2698,2698,2700,2702,2707,2718,2718,2731,2758,2769,2774,2774,2777,2780,2783,2788,2788,2794,2800,2804,2807,2809,2809,2812,2814,2817,2821,2821,2835,2858,2867,2871,2871,2873,2876,2881,2895,2895,2916,2925,2930,2935,2935,2940,2944,2948,2951,2954,2954,2957,2964,2999,3006,3006,3011,3014,3017,3021,3021,3027,3040,3062,3086,3086,3090,3091,3093,3094,3094,3100,3106,3114,3119,3119,3124,3128,3136,3154,3167,3167,3175,3192,3205,3209,3209,3211,3216,3223,3232,3232,3238,3242,3249,3265,3265,3276,3284,3291,3320,3320,3327,3331,3337,3343,3350,3350,3359,3369,3381,3393,3393,3410,3420,3432,3447,3447,3455,3462,3471,3484,3484,3499,3512,3530,3543,3543,3548,3553,3564,3577,3577,3581,3584,3588,3600,3614,3614,3619,3621,3625,3632,3632,3652,3671,3680,3698,3698,3703,3707,3717,3736,3736,3749,3756,3763,3773,3773,3785,3826,3832,3836,3850,3850,3867,3880,3887,3890,3890,3894,3901,3916,3944,3944,3979,3996,4008,4014,4014,4018,4021,4025,4030,4030,4035,4043,4083,4092,4097,4097,4106,4125,4136,4155,4155,4164,4208,4214,4229,4229,4246,4258,4291,4299,4299,4322,4372,4374,4377,4380,4380,4385,4406,4421,4429,4429,4435,4439,4445,4461,4461,4477,4500,4508,4546,4546,4549,4588,4627,4676,4676,4677,4677,4679,4684,4729,4729,4733,4742,4758,4784
0,0,0,0,0,0,0,0,0,0,0,0,0,0,0,0,0,0,0,0,0,0,0,0,0,0,0,0,0,0,0,0,0,0,0,0,0,0,0,0,0,0,0,0,0,0,0,0,0,0,0,0,0,0,0,0,0,0,0,0,0,0,0,0,0,0,0,0,0,0,0,0,0,0,0,0,0,0,0,0,0,0,0,0,0,0,0,0,0,0,0,0,0,0,0,0,0,0,0,0,0,0,0,0,0,0,0,0,0,0,0,0,0,0,0,0,0,0,0,0,0,0,0,0,0,0,0,0,0,0,0,0,0,0,0,0,0,0,0,0,0,0,0,0,0,0,0,0,0,0,0,0,0,0,0,0,0,0,0,0,0,0,0,0,0,0,0,0,0,0,0,0,0,0,0,0,0,0,0,0,0,0,0,0,0,0,0,0,0,0,0,0,0,0,0,0,0,0,0,0,0,0,0,0,0,0,0,0,0,0,0,0,0,0,0,0,0,0,0,0,0,0,0,0,0,0,0,0,0,0,0,0,0,0,0,0,0,0,0,0,0,0,0,0,0,0,0,0,0,0,0,0,0,0,0,0,0,0,0,0,0,0,0,0,0,0,0,0,0,0,0,0,0,0,0,0,0,0,0,0,0,0,0,0,0,0,0,0,0,0,0,0,0,0,0,0,0,0,0,0,0,0,0,0,0,0,0,0,0,0,0,1960,1960,0,0,1963,1963,1979,2019,2012,2012,2022,2048,2083,2083,2101,2101,2109,2112,2112,2118,2125,2128,2129,2129,2128,2128,2128,2129,2129,2134,2147,2186,2222,2222,2227,2231,2236,2241,2241,2248,2255,2262,2269,2269,2275,2281,2287,2292,2292,2296,2299,2303,2307,2307,2311,2316,2320,2323,2323,2326,2329,2332,2336,2336,2339,2342,2346,2349,2354,2354,2358,2368,2374,2381,2381,2386,2389,2392,2396,2396,2401,2407,2410,2414,2414,2417,2422,2430,2438,2438,2444,2448,2452,2456,2456,2460,2464,2471,2484,2484,2497,2501,2504,2507,2510,2510,2513,2517,2521,2526,2526,2531,2536,2542,2554,2554,2561,2566,2571,2576,2576,2582,2588,2593,2597,2597,2600,2603,2606,2610,2610,2615,2624,2629,2634,2638,2638,2644,2650,2659,2669,2669,2678,2685,2692,2698,2698,2700,2701,2702,2703,2703,2705,2707,2717,2731,2731,2744,2758,2777,2780,2780,2782,2785,2789,2795,2802,2802,2807,2809,2811,2813,2813,2815,2817,2821,2833,2833,2857,2870,2875,2878,2878,2880,2883,2893,2915,2915,2924,2929,2934,2938,2938,2943,2948,2952,2956,2959,2959,2966,2985,2999,3006,3006,3011,3014,3017,3021,3021,3027,3040,3089,3092,3092,3094,3096,3098,3101,3101,3107,3114,3120,3125,3125,3130,3143,3161,3173,3181,3181,3196,3207,3213,3216,3216,3219,3225,3233,3241,3241,3247,3255,3264,3273,3273,3283,3291,3305,3320,3320,3327,3331,3337,3343,3350,3350,3359,3381,3392,3410,3410,3425,3447,3455,3459,3459,3463,3469,3481,3498,3498,3513,3537,3545,3551,3551,3557,3564,3576,3588,3588,3605,3612,3616,3622,3625,3625,3627,3630,3634,3648,3648,3668,3681,3691,3698,3698,3703,3707,3717,3736,3736,3749,3756,3763,3797,3797,3824,3830,3836,3849,3871,3871,3882,3889,3893,3897,3897,3903,3913,3931,3957,3957,3994,4008,4012,4016,4016,4019,4023,4027,4033,4033,4046,4086,4092,4097,4106,4106,4127,4140,4156,4176,4176,4203,4208,4214,4229,4229,4246,4258,4292,4316,4316,4371,4374,4376,4379,4385,4385,4402,4416,4437,4447,4447,4449,4456,4470,4487,4487,4499,4505,4551,4553,4553,4566,4595,4628,4676,4676,4733,4733,4733,4733,4733,4733,4739,4754,4784,4794
0,0,0,0,0,0,0,0,0,0,0,0,0,0,0,0,0,0,0,0,0,0,0,0,0,0,0,0,0,0,0,0,0,0,0,0,0,0,0,0,0,0,0,0,0,0,0,0,0,0,0,0,0,0,0,0,0,0,0,0,0,0,0,0,0,0,0,0,0,0,0,0,0,0,0,0,0,0,0,0,0,0,0,0,0,0,0,0,0,0,0,0,0,0,0,0,0,0,0,0,0,0,0,0,0,0,0,0,0,0,0,0,0,0,0,0,0,0,0,0,0,0,0,0,0,0,0,0,0,0,0,0,0,0,0,0,0,0,0,0,0,0,0,0,0,0,0,0,0,0,0,0,0,0,0,0,0,0,0,0,0,0,0,0,0,0,0,0,0,0,0,0,0,0,0,0,0,0,0,0,0,0,0,0,0,0,0,0,0,0,0,0,0,0,0,0,0,0,0,0,0,0,0,0,0,0,0,0,0,0,0,0,0,0,0,0,0,0,0,0,0,0,0,0,0,0,0,0,0,0,0,0,0,0,0,0,0,0,0,0,0,0,0,0,0,0,0,0,0,0,0,0,0,0,0,0,0,0,0,0,0,0,0,0,0,0,0,0,0,0,0,0,0,0,0,0,0,0,0,0,0,0,0,0,0,0,0,0,0,0,0,0,0,0,0,0,0,0,0,0,0,0,0,0,0,0,0,0,0,0,0,0,0,0,0,1963,1963,1974,1974,1974,2012,2022,2023,2055,2055,2065,2101,2109,2112,2112,2118,2122,2122,2122,2122,2128,2128,2128,2129,2129,2134,2139,2186,2221,2221,2229,2232,2237,2244,2244,2252,2261,2268,2275,2275,2281,2287,2292,2296,2296,2300,2304,2307,2311,2311,2315,2319,2323,2326,2326,2329,2332,2335,2339,2339,2342,2345,2349,2353,2357,2357,2362,2368,2374,2381,2381,2386,2389,2400,2405,2405,2411,2416,2419,2422,2422,2425,2430,2436,2442,2442,2447,2451,2455,2459,2459,2464,2469,2477,2492,2492,2500,2504,2508,2511,2515,2515,2518,2522,2526,2531,2531,2536,2541,2547,2554,2554,2561,2566,2571,2576,2576,2582,2593,2597,2601,2601,2604,2607,2611,2617,2617,2629,2635,2638,2641,2646,2646,2652,2661,2670,2678,2678,2686,2694,2702,2706,2706,2707,2708,2708,2709,2709,2711,2717,2730,2742,2742,2755,2771,2777,2780,2780,2782,2785,2789,2795,2802,2802,2807,2809,2811,2813,2813,2815,2817,2821,2859,2859,2872,2878,2882,2884,2884,2888,2898,2916,2923,2923,2928,2932,2937,2941,2941,2947,2952,2957,2961,2967,2967,2986,3000,3007,3013,3013,3017,3020,3024,3028,3028,3039,3052,3094,3096,3096,3098,3100,3103,3107,3107,3113,3119,3124,3132,3132,3163,3176,3180,3184,3192,3192,3208,3216,3221,3226,3226,3233,3239,3245,3250,3250,3255,3262,3270,3304,3304,3320,3323,3326,3329,3329,3332,3336,3341,3349,3359,3359,3372,3381,3392,3410,3410,3448,3456,3460,3464,3464,3470,3479,3494,3512,3512,3534,3544,3552,3559,3559,3565,3575,3591,3608,3608,3616,3620,3625,3630,3635,3635,3637,3639,3648,3663,3663,3677,3690,3701,3706,3706,3711,3717,3730,3746,3746,3757,3766,3778,3797,3797,3824,3830,3836,3877,3883,3883,3892,3898,3903,3907,3907,3916,3930,3951,3991,3991,4007,4011,4015,4018,4018,4021,4024,4030,4049,4049,4081,4092,4114,4125,4133,4133,4141,4152,4167,4202,4202,4211,4217,4228,4246,4246,4257,4282,4292,4316,4316,4371,4374,4376,4379,4385,4385,4414,4442,4450,4455,4455,4458,4475,4492,4500,4500,4502,4556,4556,4556,4556,4597,4617,4679,4734,4734,4734,4733,4733,4735,4737,4737,4753,4784,4789,4820
0,0,0,0,0,0,0,0,0,0,0,0,0,0,0,0,0,0,0,0,0,0,0,0,0,0,0,0,0,0,0,0,0,0,0,0,0,0,0,0,0,0,0,0,0,0,0,0,0,0,0,0,0,0,0,0,0,0,0,0,0,0,0,0,0,0,0,0,0,0,0,0,0,0,0,0,0,0,0,0,0,0,0,0,0,0,0,0,0,0,0,0,0,0,0,0,0,0,0,0,0,0,0,0,0,0,0,0,0,0,0,0,0,0,0,0,0,0,0,0,0,0,0,0,0,0,0,0,0,0,0,0,0,0,0,0,0,0,0,0,0,0,0,0,0,0,0,0,0,0,0,0,0,0,0,0,0,0,0,0,0,0,0,0,0,0,0,0,0,0,0,0,0,0,0,0,0,0,0,0,0,0,0,0,0,0,0,0,0,0,0,0,0,0,0,0,0,0,0,0,0,0,0,0,0,0,0,0,0,0,0,0,0,0,0,0,0,0,0,0,0,0,0,0,0,0,0,0,0,0,0,0,0,0,0,0,0,0,0,0,0,0,0,0,0,0,0,0,0,0,0,0,0,0,0,0,0,0,0,0,0,0,0,0,0,0,0,0,0,0,0,0,0,0,0,0,0,0,0,0,0,0,0,0,0,0,0,0,0,0,0,0,0,0,0,0,0,0,0,0,0,0,0,0,0,0,0,0,0,0,0,0,0,0,0,0,0,1974,1974,1965,1965,2001,2023,2055,2037,2037,2059,2095,2107,2107,2111,2117,2122,2122,2122,2121,2121,2122,2122,2122,2124,2139,2150,2198,2198,2229,2232,2237,2244,2244,2252,2268,2275,2281,2281,2286,2291,2295,2299,2299,2303,2307,2311,2315,2315,2319,2322,2326,2329,2329,2332,2335,2339,2342,2342,2346,2349,2353,2357,2362,2362,2367,2374,2382,2388,2388,2393,2396,2400,2405,2405,2411,2416,2419,2422,2422,2431,2436,2440,2445,2445,2449,2454,2458,2462,2462,2467,2474,2487,2498,2498,2503,2507,2511,2515,2518,2518,2522,2526,2531,2535,2535,2540,2545,2552,2560,2560,2566,2571,2576,2581,2581,2587,2593,2597,2601,2601,2604,2607,2611,2617,2617,2638,2642,2644,2648,2654,2654,2660,2669,2677,2684,2684,2694,2704,2710,2713,2713,2714,2714,2714,2715,2715,2719,2730,2741,2754,2754,2774,2780,2783,2785,2785,2787,2790,2795,2804,2810,2810,2813,2814,2816,2817,2817,2819,2822,2836,2859,2859,2879,2884,2889,2895,2895,2905,2914,2921,2926,2926,2930,2935,2940,2945,2945,2951,2957,2963,2969,2985,2985,3000,3008,3014,3019,3019,3023,3027,3032,3039,3039,3050,3087,3094,3096,3096,3098,3100,3103,3107,3107,3113,3119,3124,3132,3132,3176,3181,3186,3192,3205,3205,3217,3224,3229,3235,3235,3241,3247,3251,3256,3256,3261,3267,3308,3322,3322,3328,3330,3332,3334,3334,3336,3340,3347,3360,3372,3372,3382,3392,3418,3433,3433,3448,3456,3460,3464,3464,3470,3479,3513,3532,3532,3541,3551,3563,3568,3568,3575,3589,3608,3620,3620,3627,3634,3639,3644,3647,3647,3650,3654,3663,3673,3673,3687,3702,3711,3715,3715,3720,3729,3744,3758,3758,3768,3779,3794,3818,3818,3828,3867,3874,3877,3883,3883,3892,3898,3903,3907,3907,3916,3930,3971,4005,4005,4010,4014,4017,4020,4020,4022,4026,4064,4082,4082,4102,4120,4129,4134,4142,4142,4155,4176,4204,4213,4213,4221,4231,4246,4257,4257,4270,4287,4298,4322,4322,4375,4377,4380,4384,4398,4398,4414,4442,4450,4455,4455,4458,4475,4492,4500,4500,4502,4557,4558,4560,4560,4605,4675,4703,4735,4735,4782,4783,4784,4783,4783,4783,4784,4787,4822,4836
0,0,0,0,0,0,0,0,0,0,0,0,0,0,0,0,0,0,0,0,0,0,0,0,0,0,0,0,0,0,0,0,0,0,0,0,0,0,0,0,0,0,0,0,0,0,0,0,0,0,0,0,0,0,0,0,0,0,0,0,0,0,0,0,0,0,0,0,0,0,0,0,0,0,0,0,0,0,0,0,0,0,0,0,0,0,0,0,0,0,0,0,0,0,0,0,0,0,0,0,0,0,0,0,0,0,0,0,0,0,0,0,0,0,0,0,0,0,0,0,0,0,0,0,0,0,0,0,0,0,0,0,0,0,0,0,0,0,0,0,0,0,0,0,0,0,0,0,0,0,0,0,0,0,0,0,0,0,0,0,0,0,0,0,0,0,0,0,0,0,0,0,0,0,0,0,0,0,0,0,0,0,0,0,0,0,0,0,0,0,0,0,0,0,0,0,0,0,0,0,0,0,0,0,0,0,0,0,0,0,0,0,0,0,0,0,0,0,0,0,0,0,0,0,0,0,0,0,0,0,0,0,0,0,0,0,0,0,0,0,0,0,0,0,0,0,0,0,0,0,0,0,0,0,0,0,0,0,0,0,0,0,0,0,0,0,0,0,0,0,0,0,0,0,0,0,0,0,0,0,0,0,0,0,0,0,0,0,0,0,0,0,0,0,0,0,0,0,0,0,0,0,0,0,0,0,0,0,0,0,0,0,0,0,0,0,0,0,0,1965,1964,1964,1990,2013,2013,2037,2059,2056,2056,2056,2071,2103,2113,2116,2115,2115,2115,2115,2116,2116,2118,2121,2150,2198,2198,2228,2234,2239,2247,2247,2260,2268,2275,2285,2285,2290,2294,2298,2302,2302,2306,2310,2314,2318,2318,2322,2326,2329,2333,2333,2336,2339,2343,2347,2347,2350,2354,2358,2362,2366,2366,2372,2381,2388,2394,2394,2399,2403,2408,2413,2413,2418,2422,2425,2428,2428,2431,2436,2440,2445,2445,2449,2454,2458,2465,2465,2471,2480,2492,2500,2500,2505,2510,2514,2518,2522,2522,2526,2530,2535,2540,2540,2544,2550,2556,2564,2564,2571,2576,2581,2586,2586,2592,2597,2601,2605,2605,2608,2611,2617,2632,2632,2638,2642,2644,2648,2654,2654,2660,2674,2682,2690,2690,2702,2713,2718,2720,2720,2721,2721,2722,2725,2725,2733,2741,2751,2778,2778,2783,2785,2788,2790,2790,2793,2797,2806,2813,2817,2817,2818,2819,2821,2822,2822,2824,2833,2858,2872,2872,2879,2884,2889,2895,2895,2905,2920,2924,2929,2929,2933,2938,2943,2949,2949,2956,2963,2971,2986,3002,3002,3009,3014,3019,3024,3024,3028,3033,3039,3050,3050,3073,3093,3097,3100,3100,3102,3105,3109,3114,3114,3120,3125,3133,3167,3167,3176,3181,3186,3192,3217,3217,3224,3230,3236,3242,3242,3247,3252,3256,3260,3260,3265,3306,3321,3329,3329,3333,3335,3336,3338,3338,3341,3346,3358,3373,3389,3389,3416,3426,3435,3449,3449,3457,3461,3465,3469,3469,3476,3492,3513,3532,3532,3541,3551,3570,3577,3577,3591,3605,3620,3630,3630,3636,3641,3646,3650,3654,3654,3658,3663,3671,3682,3682,3699,3713,3719,3723,3723,3729,3740,3755,3768,3768,3780,3794,3810,3826,3826,3869,3874,3877,3883,3891,3891,3901,3908,3912,3918,3918,3929,3941,3971,4005,4005,4010,4014,4017,4020,4020,4022,4026,4081,4104,4122,4122,4132,4137,4143,4151,4151,4164,4202,4215,4228,4228,4235,4246,4256,4267,4267,4286,4297,4320,4374,4374,4378,4381,4385,4396,4414,4414,4440,4450,4456,4504,4504,4508,4520,4555,4556,4556,4557,4557,4558,4560,4560,4605,4696,4738,4783,4783,4784,4784,4784,4784,4784,4784,4785,4832,4841,4874
0,0,0,0,0,0,0,0,0,0,0,0,0,0,0,0,0,0,0,0,0,0,0,0,0,0,0,0,0,0,0,0,0,0,0,0,0,0,0,0,0,0,0,0,0,0,0,0,0,0,0,0,0,0,0,0,0,0,0,0,0,0,0,0,0,0,0,0,0,0,0,0,0,0,0,0,0,0,0,0,0,0,0,0,0,0,0,0,0,0,0,0,0,0,0,0,0,0,0,0,0,0,0,0,0,0,0,0,0,0,0,0,0,0,0,0,0,0,0,0,0,0,0,0,0,0,0,0,0,0,0,0,0,0,0,0,0,0,0,0,0,0,0,0,0,0,0,0,0,0,0,0,0,0,0,0,0,0,0,0,0,0,0,0,0,0,0,0,0,0,0,0,0,0,0,0,0,0,0,0,0,0,0,0,0,0,0,0,0,0,0,0,0,0,0,0,0,0,0,0,0,0,0,0,0,0,0,0,0,0,0,0,0,0,0,0,0,0,0,0,0,0,0,0,0,0,0,0,0,0,0,0,0,0,0,0,0,0,0,0,0,0,0,0,0,0,0,0,0,0,0,0,0,0,0,0,0,0,0,0,0,0,0,0,0,0,0,0,0,0,0,0,0,0,0,0,0,0,0,0,0,0,0,0,0,0,0,0,0,0,0,0,0,0,0,0,0,0,0,0,0,0,0,0,0,0,0,0,0,0,0,0,0,0,0,0,0,0,0,0,1964,1964,1967,1984,1984,2007,2022,2047,2056,2056,2071,2098,2098,2107,2107,2109,2109,2109,2110,2110,2113,2116,2150,2200,2200,2213,2236,2243,2257,2257,2267,2274,2280,2285,2285,2290,2294,2298,2302,2302,2306,2313,2317,2321,2321,2326,2330,2333,2336,2336,2340,2343,2348,2352,2356,2356,2359,2362,2366,2370,2370,2377,2385,2394,2400,2400,2405,2409,2414,2420,2420,2424,2428,2431,2434,2434,2437,2440,2444,2448,2448,2452,2456,2461,2465,2465,2471,2480,2497,2503,2508,2508,2513,2517,2521,2526,2526,2530,2535,2539,2544,2544,2548,2554,2563,2570,2570,2576,2580,2586,2592,2592,2597,2602,2606,2609,2609,2612,2616,2632,2641,2641,2644,2647,2650,2654,2660,2660,2667,2674,2682,2690,2690,2702,2721,2725,2726,2726,2728,2729,2731,2736,2736,2744,2752,2778,2784,2784,2786,2789,2792,2795,2795,2799,2805,2815,2820,2822,2822,2824,2825,2826,2827,2827,2835,2861,2873,2880,2880,2886,2892,2899,2906,2906,2914,2920,2924,2929,2929,2933,2938,2943,2949,2949,2956,2973,2992,3004,3010,3010,3015,3020,3025,3029,3029,3034,3040,3050,3067,3067,3091,3098,3101,3104,3104,3108,3111,3116,3120,3120,3125,3132,3162,3177,3177,3182,3186,3191,3202,3217,3217,3224,3230,3236,3242,3242,3247,3252,3256,3260,3260,3265,3319,3329,3335,3335,3339,3340,3342,3344,3344,3347,3358,3375,3400,3415,3415,3428,3437,3449,3457,3457,3462,3466,3470,3477,3477,3489,3505,3526,3536,3536,3551,3564,3570,3577,3577,3591,3605,3620,3630,3630,3643,3647,3652,3657,3661,3661,3665,3670,3679,3695,3695,3714,3722,3726,3731,3731,3737,3755,3769,3780,3780,3794,3806,3827,3867,3867,3874,3877,3883,3895,3906,3906,3911,3916,3922,3927,3927,3937,3974,4002,4008,4008,4013,4016,4019,4021,4021,4024,4071,4081,4104,4139,4139,4142,4146,4155,4167,4167,4205,4221,4229,4236,4236,4245,4257,4267,4284,4284,4306,4321,4324,4380,4380,4383,4387,4396,4415,4433,4433,4449,4460,4504,4509,4509,4529,4552,4556,4557,4557,4558,4559,4559,4606,4606,4643,4696,4748,4784,4784,4785,4839,4841,4842,4842,4839,4839,4842,4868,4909
0,0,0,0,0,0,0,0,0,0,0,0,0,0,0,0,0,0,0,0,0,0,0,0,0,0,0,0,0,0,0,0,0,0,0,0,0,0,0,0,0,0,0,0,0,0,0,0,0,0,0,0,0,0,0,0,0,0,0,0,0,0,0,0,0,0,0,0,0,0,0,0,0,0,0,0,0,0,0,0,0,0,0,0,0,0,0,0,0,0,0,0,0,0,0,0,0,0,0,0,0,0,0,0,0,0,0,0,0,0,0,0,0,0,0,0,0,0,0,0,0,0,0,0,0,0,0,0,0,0,0,0,0,0,0,0,0,0,0,0,0,0,0,0,0,0,0,0,0,0,0,0,0,0,0,0,0,0,0,0,0,0,0,0,0,0,0,0,0,0,0,0,0,0,0,0,0,0,0,0,0,0,0,0,0,0,0,0,0,0,0,0,0,0,0,0,0,0,0,0,0,0,0,0,0,0,0,0,0,0,0,0,0,0,0,0,0,0,0,0,0,0,0,0,0,0,0,0,0,0,0,0,0,0,0,0,0,0,0,0,0,0,0,0,0,0,0,0,0,0,0,0,0,0,0,0,0,0,0,0,0,0,0,0,0,0,0,0,0,0,0,0,0,0,0,0,0,0,0,0,0,0,0,0,0,0,0,0,0,0,0,0,0,0,0,0,0,0,0,0,0,0,0,0,0,0,0,0,0,0,0,0,0,0,0,0,0,0,0,0,1961,1961,1967,1984,1984,1998,1998,2020,2037,2037,2052,2064,2098,2107,2102,2102,2103,2104,2106,2106,2107,2109,2123,2163,2163,2213,2236,2247,2264,2264,2275,2279,2284,2289,2289,2293,2297,2301,2305,2305,2309,2313,2317,2321,2321,2326,2330,2333,2336,2336,2340,2349,2355,2359,2362,2362,2364,2367,2370,2374,2374,2381,2392,2401,2406,2406,2411,2415,2420,2426,2426,2430,2434,2436,2439,2439,2441,2444,2448,2451,2451,2455,2459,2464,2469,2469,2477,2487,2497,2503,2508,2508,2513,2517,2521,2526,2526,2534,2539,2544,2548,2548,2553,2559,2568,2576,2576,2580,2585,2591,2597,2597,2602,2606,2610,2613,2613,2617,2627,2642,2646,2646,2648,2651,2655,2659,2664,2664,2672,2679,2687,2698,2698,2714,2721,2725,2726,2726,2728,2729,2731,2736,2736,2744,2775,2783,2787,2787,2790,2793,2796,2800,2800,2805,2814,2822,2826,2827,2827,2829,2829,2830,2836,2836,2862,2874,2881,2887,2887,2894,2901,2907,2913,2913,2918,2923,2927,2932,2932,2937,2942,2948,2955,2955,2963,2973,2992,3004,3016,3016,3021,3026,3030,3035,3035,3039,3049,3065,3084,3084,3097,3102,3106,3109,3109,3113,3118,3122,3126,3126,3131,3143,3174,3182,3182,3187,3193,3202,3213,3223,3223,3231,3237,3244,3249,3249,3253,3257,3261,3265,3265,3274,3319,3336,3340,3340,3342,3344,3346,3348,3348,3356,3373,3400,3414,3429,3429,3442,3451,3458,3464,3464,3467,3472,3477,3487,3487,3505,3524,3533,3546,3546,3566,3572,3580,3592,3592,3602,3617,3632,3637,3643,3643,3647,3652,3657,3661,3661,3665,3670,3679,3695,3695,3714,3729,3734,3740,3740,3756,3772,3780,3791,3791,3803,3815,3845,3874,3878,3878,3885,3896,3906,3912,3912,3917,3923,3928,3936,3936,3980,3999,4007,4011,4011,4015,4019,4021,4024,4024,4073,4077,4102,4126,4139,4139,4142,4146,4155,4167,4167,4205,4230,4239,4264,4264,4278,4294,4306,4312,4312,4319,4323,4380,4385,4385,4389,4395,4418,4433,4445,4445,4464,4501,4507,4540,4540,4550,4555,4598,4602,4602,4603,4605,4605,4606,4606,4671,4709,4748,4784,4784,4785,4839,4841,4842,4842,4839,4839,4842,4868,4945
0,0,0,0,0,0,0,0,0,0,0,0,0,0,0,0,0,0,0,0,0,0,0,0,0,0,0,0,0,0,0,0,0,0,0,0,0,0,0,0,0,0,0,0,0,0,0,0,0,0,0,0,0,0,0,0,0,0,0,0,0,0,0,0,0,0,0,0,0,0,0,0,0,0,0,0,0,0,0,0,0,0,0,0,0,0,0,0,0,0,0,0,0,0,0,0,0,0,0,0,0,0,0,0,0,0,0,0,0,0,0,0,0,0,0,0,0,0,0,0,0,0,0,0,0,0,0,0,0,0,0,0,0,0,0,0,0,0,0,0,0,0,0,0,0,0,0,0,0,0,0,0,0,0,0,0,0,0,0,0,0,0,0,0,0,0,0,0,0,0,0,0,0,0,0,0,0,0,0,0,0,0,0,0,0,0,0,0,0,0,0,0,0,0,0,0,0,0,0,0,0,0,0,0,0,0,0,0,0,0,0,0,0,0,0,0,0,0,0,0,0,0,0,0,0,0,0,0,0,0,0,0,0,0,0,0,0,0,0,0,0,0,0,0,0,0,0,0,0,0,0,0,0,0,0,0,0,0,0,0,0,0,0,0,0,0,0,0,0,0,0,0,0,0,0,0,0,0,0,0,0,0,0,0,0,0,0,0,0,0,0,0,0,0,0,0,0,0,0,0,0,0,0,0,0,0,0,0,0,0,0,0,0,0,0,0,0,0,0,0,1961,1961,1965,1971,1971,1980,1998,2020,2037,2022,2022,2045,2063,2090,2090,2102,2103,2104,2106,2106,2107,2109,2122,2163,2163,2213,2236,2243,2275,2275,2280,2283,2288,2292,2292,2296,2300,2304,2307,2307,2311,2315,2320,2325,2325,2330,2334,2337,2340,2340,2344,2349,2355,2359,2362,2362,2364,2367,2370,2374,2374,2386,2400,2407,2412,2412,2416,2421,2426,2431,2431,2435,2439,2441,2444,2444,2446,2448,2451,2454,2454,2458,2462,2466,2472,2472,2482,2493,2500,2505,2510,2510,2515,2520,2525,2529,2529,2534,2539,2544,2548,2548,2553,2559,2575,2581,2581,2585,2590,2596,2602,2602,2607,2611,2615,2619,2619,2626,2641,2647,2650,2653,2653,2655,2659,2663,2669,2669,2676,2684,2693,2711,2711,2724,2727,2730,2733,2733,2735,2737,2741,2745,2745,2751,2775,2783,2787,2787,2793,2796,2800,2805,2805,2811,2822,2828,2831,2833,2833,2834,2835,2840,2864,2864,2877,2883,2888,2896,2896,2903,2909,2913,2918,2918,2922,2926,2930,2935,2935,2941,2947,2955,2964,2964,2976,2995,3005,3011,3016,3016,3021,3026,3030,3035,3035,3039,3049,3079,3097,3097,3103,3107,3111,3115,3115,3120,3124,3128,3132,3132,3140,3168,3183,3189,3195,3195,3203,3213,3224,3232,3232,3239,3245,3251,3255,3255,3259,3262,3266,3274,3274,3314,3328,3336,3340,3340,3342,3344,3346,3348,3348,3356,3373,3414,3431,3443,3443,3453,3462,3467,3470,3470,3474,3479,3488,3502,3502,3521,3530,3539,3561,3561,3571,3582,3593,3602,3602,3609,3626,3638,3643,3648,3648,3653,3659,3665,3669,3669,3673,3679,3691,3710,3710,3723,3729,3734,3740,3740,3756,3772,3780,3791,3791,3803,3835,3871,3880,3884,3884,3894,3907,3915,3921,3921,3935,3966,3978,3985,3985,3997,4005,4011,4015,4015,4019,4022,4024,4075,4075,4077,4111,4143,4148,4149,4149,4152,4155,4161,4202,4202,4217,4230,4239,4264,4264,4278,4294,4306,4312,4312,4319,4323,4387,4392,4392,4400,4429,4437,4443,4457,4457,4476,4508,4540,4549,4549,4558,4597,4601,4603,4603,4604,4606,4648,4674,4674,4706,4746,4783,4788,4788,4838,4839,4841,4843,4844,4844,4851,4866,4941,4945
