317.307678,63.461548,825.000000
365.846130,71.384628,928.000000
383.250000,73.000008,949.000000
398.576904,74.153854,964.000000
435.769226,79.230782,1030.000000
392.884613,69.846161,908.000000
430.807678,74.923088,974.000000
445.596130,75.846169,986.000000
464.769226,77.461548,1007.000000
480.105743,78.384628,1019.000000
473.557678,75.769241,985.000000
464.884613,72.923088,948.000000
504.500000,77.615395,1009.000000
498.403839,75.230782,978.000000
504.692291,74.769241,972.000000
494.471130,71.923088,935.000000
524.461548,74.923088,974.000000
527.798096,74.076935,963.000000
552.115356,76.153854,990.000000
565.038452,76.615395,996.000000
572.884583,76.384628,993.000000
593.576904,77.846169,1012.000000
599.134583,77.307701,1005.000000
577.298096,73.307701,953.000000
616.000000,77.000015,1001.000000
636.875000,78.384628,1019.000000
620.653809,75.230782,978.000000
653.894226,78.076935,1015.000000
678.038452,79.769241,1037.000000
664.788452,77.076935,1002.000000
702.019226,80.230782,1043.000000
692.932678,78.076935,1015.000000
708.230774,78.692322,1023.000000
724.384583,79.384628,1032.000000
743.557678,80.384628,1045.000000
739.182678,78.846169,1025.000000
719.076904,75.692322,984.000000
776.663452,80.692322,1049.000000
741.750000,76.076935,989.000000
748.221130,75.769241,985.000000
-294.615387,25.778851,383.000000
-151.923080,13.461541,200.000000
-162.000000,14.538464,216.000000
-166.586548,15.144234,225.000000
-160.769226,14.807694,220.000000
-256.009613,23.894236,355.000000
-247.615387,23.423080,348.000000
-164.250000,15.750003,234.000000
-264.461548,25.711542,382.000000
-164.528854,16.221157,241.000000
-248.365387,24.836542,369.000000
-236.192307,23.961542,356.000000
-266.115387,27.394236,407.000000
-154.615387,16.153849,240.000000
-227.192307,24.096157,358.000000
-160.625000,17.298080,257.000000
-214.153854,23.423080,348.000000
-220.500000,24.500004,364.000000
-202.692307,22.884619,340.000000
-228.750000,26.250004,390.000000
-137.884613,16.086542,239.000000
-197.990387,23.490389,349.000000
-219.730774,26.519236,394.000000
-209.365387,25.711542,382.000000
-184.153854,23.019236,342.000000
-181.923080,23.153851,344.000000
-196.788467,25.509621,379.000000
-180.403854,23.826927,354.000000
-191.000000,25.711542,382.000000
-186.346161,25.576927,380.000000
-234.134628,32.778851,487.000000
-183.278854,26.182697,389.000000
-183.692307,26.788465,398.000000
-181.221161,26.990389,401.000000
-183.115387,27.865389,414.000000
-205.096161,31.903852,474.000000
-173.038467,27.528851,409.000000
-222.442307,36.211544,538.000000
-203.134628,33.855774,503.000000
-194.355774,33.182697,493.000000
-195.000000,34.125008,507.000000
-194.250000,34.865391,518.000000
-193.653854,35.673084,530.000000
-187.134628,35.403851,526.000000
-167.884628,32.644238,485.000000
-179.375000,35.875008,533.000000
-187.326935,38.567314,573.000000
-157.067307,33.317314,495.000000
-160.615387,35.134621,522.000000
-185.701935,41.932701,623.000000
-170.192322,39.711544,590.000000
-164.519241,39.711544,590.000000
-165.038467,41.259621,613.000000
-164.336548,42.605778,633.000000
-150.750000,40.586544,603.000000
-154.086548,43.144238,641.000000
-145.846161,42.538467,632.000000
-140.653854,42.807701,636.000000
-136.653854,43.480778,646.000000
-133.269241,44.423084,660.000000
-127.692314,44.692314,664.000000
-124.596161,45.903854,682.000000
-120.115395,46.711548,694.000000
-113.932701,46.913471,697.000000
-103.846161,45.432701,675.000000
-96.634621,45.096161,670.000000
-89.250008,44.625008,663.000000
-79.750008,42.942314,638.000000
-80.423088,46.913471,697.000000
-75.096161,47.788471,710.000000
-59.519238,41.663467,619.000000
-57.201931,44.490391,661.000000
-51.538467,45.096161,670.000000
-45.365391,45.365391,674.000000
-43.326931,50.548084,751.000000
-30.865393,43.211544,642.000000
-24.923084,43.615391,648.000000
-18.923084,44.153854,656.000000
-13.750009,48.125008,715.000000
-6.250008,43.750008,650.000000
-0.000008,45.365391,674.000000
5.855762,40.990391,609.000000
13.384607,46.846161,696.000000
18.028839,42.067314,625.000000
25.461531,44.557701,662.000000
30.817301,43.144238,641.000000
35.076916,40.923084,608.000000
46.240376,46.240391,687.000000
53.615376,46.913471,697.000000
60.230762,46.846161,696.000000
72.499992,50.750008,754.000000
68.749992,43.750008,650.000000
72.807686,42.471161,631.000000
75.999992,40.923084,608.000000
86.826912,43.413467,645.000000
93.173073,43.480778,646.000000
102.461533,44.826931,666.000000
112.134605,46.173084,686.000000
118.903839,46.240391,687.000000
130.259613,47.990395,713.000000
129.423065,45.298084,673.000000
131.653839,43.884624,652.000000
140.673065,44.759624,665.000000
150.163452,45.701931,679.000000
156.461533,45.634624,678.000000
159.615372,44.692314,664.000000
161.000000,43.346161,644.000000
165.634613,42.942314,638.000000
187.115372,46.778854,695.000000
189.615372,45.769238,680.000000
203.076920,47.384624,704.000000
190.173065,42.942314,638.000000
204.615372,44.759624,665.000000
236.711533,50.211548,746.000000
222.634613,45.836548,681.000000
219.759613,43.951931,653.000000
227.423065,44.221161,657.000000
226.980759,42.942314,638.000000
230.557678,42.471161,631.000000
309.375000,55.528854,825.000000
325.769226,57.009624,847.000000
359.538452,61.384624,912.000000
379.211517,63.201935,939.000000
420.076904,68.384628,1016.000000
424.769226,67.576935,1004.000000
419.711517,65.288475,970.000000
413.557678,62.932705,935.000000
447.403839,66.634628,990.000000
467.076904,68.115395,1012.000000
448.067291,64.009628,951.000000
469.230743,65.692322,976.000000
479.105743,65.759628,977.000000
508.500000,68.451935,1017.000000
474.961517,62.730782,932.000000
532.730774,69.057701,1026.000000
504.519226,64.211548,954.000000
535.230774,66.903854,994.000000
535.471130,65.759628,977.000000
569.403809,68.721169,1021.000000
544.048096,64.548088,959.000000
570.576904,66.567322,989.000000
582.432678,66.836548,993.000000
604.500000,68.250015,1014.000000
603.346130,67.038475,996.000000
612.923096,67.038475,996.000000
605.000000,65.153854,968.000000
630.807678,66.903854,994.000000
669.355774,69.932701,1039.000000
659.076904,67.846169,1008.000000
659.480774,66.903854,994.000000
694.615356,69.461548,1032.000000
706.586548,69.663475,1035.000000
715.846130,69.596169,1034.000000
725.788452,69.596169,1034.000000
696.596130,65.894241,979.000000
742.788452,69.326935,1030.000000
727.115356,66.971169,995.000000
774.442322,70.403854,1046.000000
786.000000,70.538475,1048.000000
693.528809,61.451935,913.000000
-291.538452,21.865389,379.000000
-168.634613,12.807694,222.000000
-182.250000,14.019234,243.000000
-271.721161,21.173080,367.000000
-184.153854,14.538465,252.000000
-266.105774,21.288465,369.000000
-273.942322,22.211542,385.000000
-239.355774,19.673080,341.000000
-243.692307,20.307697,352.000000
-174.769226,14.769234,256.000000
-229.519241,19.673080,341.000000
-230.884613,20.076927,348.000000
-241.923080,21.346159,370.000000
-150.105774,13.442310,233.000000
-220.846161,20.076927,348.000000
-158.125000,14.596157,253.000000
-155.692307,14.596157,253.000000
-218.682693,20.826927,361.000000
-202.692307,19.615389,340.000000
-129.038467,12.692310,220.000000
-128.653854,12.865387,223.000000
-146.365387,14.884619,258.000000
-192.403854,19.903851,345.000000
-195.663467,20.596157,357.000000
-201.923080,21.634619,375.000000
-200.432693,21.865389,379.000000
-188.480774,20.942312,363.000000
-193.653854,21.923080,380.000000
-184.500000,21.288465,369.000000
-194.192307,22.846159,396.000000
-179.807693,21.576927,374.000000
-179.980774,22.038465,382.000000
-163.846161,20.480774,355.000000
-168.115387,21.461542,372.000000
-165.423080,21.576927,374.000000
-181.730774,24.230774,420.000000
-180.653854,24.634621,427.000000
-193.913467,27.057697,469.000000
-197.884628,28.269236,490.000000
-186.865387,27.346159,474.000000
-192.307693,28.846159,500.000000
-192.750000,29.653852,514.000000
-209.365387,33.057697,573.000000
-193.538467,31.384623,544.000000
-215.653854,35.942314,623.000000
-188.798080,32.365391,561.000000
-191.250000,33.750008,585.000000
-162.461548,29.538467,512.000000
-190.461548,35.711544,619.000000
-179.144241,34.673084,601.000000
-175.961548,35.192314,610.000000
-157.826935,32.653854,566.000000
-161.538467,34.615391,600.000000
-163.038467,36.230778,628.000000
-147.500000,34.038467,590.000000
-142.548080,34.211544,593.000000
-135.000000,33.750008,585.000000
-140.875000,36.750008,637.000000
-137.076935,37.384624,648.000000
-136.298080,38.942314,675.000000
-124.423088,37.326931,647.000000
-125.692314,39.692314,688.000000
-120.807701,40.269238,698.000000
-121.778854,42.980778,745.000000
-114.307701,42.865395,743.000000
-93.605774,37.442314,649.000000
-93.153854,39.923084,692.000000
-87.500008,40.384624,700.000000
-78.576927,39.288471,681.000000
-68.221161,37.211544,645.000000
-67.115395,40.269238,698.000000
-54.173084,36.115391,626.000000
-55.076931,41.307701,716.000000
-44.288467,37.961548,658.000000
-39.173084,39.173084,679.000000
-36.634624,43.961548,762.000000
-26.038469,39.057701,677.000000
-19.125008,38.250008,663.000000
-13.500008,40.500008,702.000000
-6.269238,37.615391,652.000000
-0.000008,38.538467,668.000000
6.528838,39.173084,679.000000
12.692300,38.076931,660.000000
18.115377,36.230778,628.000000
25.692301,38.538467,668.000000
30.673069,36.807701,638.000000
40.673069,40.673084,705.000000
46.576916,39.923084,692.000000
49.230762,36.923084,640.000000
56.076916,37.384624,648.000000
64.326912,38.596161,669.000000
72.028839,39.288471,681.000000
76.499992,38.250008,663.000000
80.624992,37.211544,645.000000
86.153839,36.923084,640.000000
99.519226,39.807701,690.000000
99.999992,37.500008,650.000000
112.624992,39.750008,689.000000
110.249992,36.750008,637.000000
127.519226,40.269238,698.000000
119.999992,36.000008,624.000000
127.413452,36.403854,631.000000
151.461533,41.307701,716.000000
154.586533,40.326931,699.000000
159.923065,39.980778,693.000000
156.971146,37.673084,653.000000
161.250000,37.211544,645.000000
186.403839,41.423084,718.000000
202.192307,43.326931,751.000000
177.625000,36.750008,637.000000
188.076920,37.615391,652.000000
193.451920,37.442314,649.000000
206.461533,38.711548,671.000000
209.423065,38.076931,660.000000
215.442307,38.019238,659.000000
221.105759,37.903854,657.000000
235.038452,39.173084,679.000000
228.759613,37.096161,643.000000
237.134613,37.442314,649.000000
309.000000,47.538471,824.000000
326.538452,48.980778,849.000000
381.221130,55.788471,967.000000
404.250000,57.750011,1001.000000
389.480743,54.346165,942.000000
432.384613,58.961552,1022.000000
407.596130,54.346165,942.000000
436.557678,56.942318,987.000000
441.076904,56.307705,976.000000
470.769226,58.846165,1020.000000
462.673065,56.653858,982.000000
461.538452,55.384628,960.000000
488.913452,57.519241,997.000000
466.500000,53.826935,933.000000
497.384613,56.307705,976.000000
524.423096,58.269241,1010.000000
519.855774,56.711548,983.000000
530.923096,56.884628,986.000000
544.240356,57.288471,993.000000
556.576904,57.576935,998.000000
568.442322,57.807705,1002.000000
573.461548,57.346165,994.000000
588.298096,57.865395,1003.000000
609.865356,59.019241,1023.000000
593.653809,56.538471,980.000000
625.230774,58.615395,1016.000000
621.250000,57.346165,994.000000
627.000000,57.000011,988.000000
648.740356,58.096165,1007.000000
674.115356,59.480782,1031.000000
643.557678,55.961548,970.000000
682.500000,58.500011,1014.000000
705.221130,59.596165,1033.000000
699.923096,58.326935,1011.000000
728.596130,59.884628,1038.000000
741.423035,60.115398,1042.000000
757.211548,60.576935,1050.000000
732.961548,57.865395,1003.000000
770.000000,60.000011,1040.000000
771.750000,59.365395,1029.000000
777.086548,59.019241,1023.000000
-187.692307,11.730772,244.000000
-179.269226,11.346156,236.000000
-188.250000,12.067310,251.000000
-176.951920,11.490387,239.000000
-165.884613,10.913465,227.000000
-265.384613,17.692312,368.000000
-268.250000,18.125004,377.000000
-246.375000,16.875004,351.000000
-259.615387,18.028851,375.000000
-152.923080,10.769234,224.000000
-258.461548,18.461542,384.000000
-244.817307,17.740389,369.000000
-248.461548,18.269236,380.000000
-166.855774,12.451926,259.000000
-229.096161,17.355774,361.000000
-220.000000,16.923080,352.000000
-155.692307,12.163465,253.000000
-155.682693,12.355772,257.000000
-216.403854,17.451927,363.000000
-208.807693,17.115389,356.000000
-196.153854,16.346157,340.000000
-141.259613,11.971157,249.000000
-201.326935,17.355774,361.000000
-195.115387,17.115389,356.000000
-189.538467,16.923080,352.000000
-196.201935,17.836542,371.000000
-190.557693,17.644236,367.000000
-131.990387,12.451926,259.000000
-188.000000,18.076927,376.000000
-226.557693,22.211544,462.000000
-199.038467,19.903851,414.000000
-179.038467,18.269236,380.000000
-186.461548,19.423082,404.000000
-188.903854,20.096159,418.000000
-164.538467,17.884619,372.000000
-182.596161,20.288465,422.000000
-198.846161,22.596159,470.000000
-207.557693,24.134621,502.000000
-193.442307,23.028852,479.000000
-195.144241,23.798082,495.000000
-204.615387,25.576929,532.000000
-185.250000,23.750006,494.000000
-171.365387,22.548082,469.000000
-202.076935,27.307699,568.000000
-195.576935,27.163467,565.000000
-192.500000,27.500006,572.000000
-174.903854,25.721161,535.000000
-190.701935,28.894238,601.000000
-167.384628,26.153852,544.000000
-189.875000,30.625008,637.000000
-175.096161,29.182699,607.000000
-157.548080,27.163467,565.000000
-143.500000,25.625006,533.000000
-157.586548,29.182699,607.000000
-154.750000,29.759623,619.000000
-149.759628,29.951931,623.000000
-145.153854,30.240393,629.000000
-140.653854,30.576931,636.000000
-137.500000,31.250008,650.000000
-135.288467,32.211548,670.000000
-128.461548,32.115391,668.000000
-124.413467,32.740391,681.000000
-115.615395,32.115391,668.000000
-116.057701,34.134624,710.000000
-114.769241,35.865395,746.000000
-92.019241,30.673084,638.000000
-89.519241,31.971161,665.000000
-80.625008,31.009623,645.000000
-79.500008,33.125008,689.000000
-67.057701,30.480776,634.000000
-68.076935,34.038471,708.000000
-57.115391,31.730778,660.000000
-52.615391,32.884624,684.000000
-41.057701,29.326931,610.000000
-42.692318,35.576931,740.000000
-37.596165,37.596165,782.000000
-25.923084,32.403854,674.000000
-20.336546,33.894238,705.000000
-14.269239,35.673084,742.000000
-6.211546,31.057699,646.000000
-0.000008,31.538469,656.000000
6.846146,34.230778,712.000000
12.442300,31.105776,647.000000
18.836531,31.394238,653.000000
25.615377,32.019238,666.000000
32.163452,32.163467,669.000000
41.076916,34.230778,712.000000
45.028839,32.163467,669.000000
52.461529,32.788471,682.000000
55.471146,30.817314,641.000000
73.557686,36.778854,765.000000
66.634605,30.288469,630.000000
78.807686,32.836548,683.000000
79.249992,30.480776,634.000000
85.211533,30.432699,633.000000
107.451912,35.817318,745.000000
98.923073,30.913469,643.000000
105.432686,31.009623,645.000000
109.903839,30.528854,635.000000
116.009605,30.528854,635.000000
121.923073,30.480776,634.000000
139.730759,33.269238,692.000000
144.692307,32.884624,684.000000
140.875000,30.625008,637.000000
156.923065,32.692314,680.000000
161.057678,32.211548,670.000000
179.499985,34.519238,718.000000
171.865372,31.826931,662.000000
205.961533,36.778854,765.000000
192.403839,33.173084,690.000000
190.673065,31.778854,661.000000
193.153839,31.153854,648.000000
211.692307,33.076931,688.000000
224.336533,33.990395,707.000000
221.326920,32.548084,677.000000
225.817307,32.259624,671.000000
240.230759,33.365391,694.000000
232.317307,31.394238,653.000000
223.250000,29.375008,611.000000
325.125000,41.682701,867.000000
350.769226,43.846165,912.000000
385.951904,47.067318,979.000000
372.750000,44.375011,923.000000
396.923065,46.153858,960.000000
398.538452,45.288471,942.000000
421.442291,46.826935,974.000000
444.519226,48.317318,1005.000000
427.067291,45.432705,945.000000
479.538452,49.951935,1039.000000
455.134613,46.442318,966.000000
472.115387,47.211548,982.000000
476.653839,46.730782,972.000000
468.500000,45.048088,937.000000
497.384613,46.923088,976.000000
520.269226,48.173088,1002.000000
549.471130,49.951935,1039.000000
556.769226,49.711552,1034.000000
552.461548,48.461552,1008.000000
578.884583,49.903858,1038.000000
559.365356,47.403858,986.000000
571.730774,47.644241,991.000000
599.442322,49.134628,1022.000000
599.134583,48.317318,1005.000000
598.500000,47.500011,988.000000
608.615356,47.548088,989.000000
632.500000,48.653858,1012.000000
637.788452,48.317318,1005.000000
633.278809,47.259628,983.000000
661.038452,48.605782,1011.000000
670.759583,48.605782,1011.000000
656.923096,46.923088,976.000000
701.125000,49.375011,1027.000000
707.538452,49.134628,1022.000000
733.509583,50.240398,1045.000000
717.230774,48.461552,1008.000000
716.826904,47.788471,994.000000
763.653809,50.240398,1045.000000
757.413452,49.182705,1023.000000
772.500000,49.519241,1030.000000
761.134583,48.173088,1002.000000
-281.538452,14.076927,366.000000
-259.028839,13.115389,341.000000
-157.500000,8.076925,210.000000
-274.682709,14.269235,371.000000
-251.384613,13.230773,344.000000
-245.192307,13.076927,340.000000
-259.000000,14.000004,364.000000
-255.500000,14.000004,364.000000
-272.769226,15.153851,394.000000
-243.038467,13.692312,356.000000
-249.711548,14.269235,371.000000
-165.201920,9.576926,249.000000
-234.076920,13.769235,358.000000
-160.413467,9.576926,249.000000
-152.942307,9.269234,241.000000
-158.750000,9.769234,254.000000
-153.846161,9.615388,250.000000
-149.019226,9.461541,246.000000
-140.692307,9.076926,236.000000
-151.913467,9.961541,259.000000
-139.038467,9.269234,241.000000
-144.663467,9.807695,255.000000
-143.884613,9.923079,258.000000
-187.990387,13.192311,343.000000
-131.923080,9.423079,245.000000
-187.740387,13.653851,355.000000
-181.211548,13.423081,349.000000
-182.951935,13.807696,359.000000
-176.000000,13.538465,352.000000
-186.836548,14.653851,381.000000
-232.211548,18.576929,483.000000
-165.375000,13.500004,351.000000
-183.230774,15.269236,397.000000
-159.528854,13.576927,353.000000
-185.769241,16.153851,420.000000
-204.230774,18.153852,472.000000
-199.269241,18.115391,471.000000
-175.721161,16.346159,425.000000
-195.057693,18.576929,483.000000
-166.365387,16.230774,422.000000
-181.538467,18.153852,472.000000
-188.625000,19.346159,503.000000
-198.403854,20.884621,543.000000
-204.211548,22.076929,574.000000
-217.730774,24.192314,629.000000
-195.528854,22.346161,581.000000
-204.000000,24.000008,624.000000
-183.721161,22.269238,579.000000
-161.538467,20.192314,525.000000
-174.076935,22.461546,584.000000
-190.673080,25.423084,661.000000
-143.048080,19.730776,513.000000
-169.346161,24.192314,629.000000
-155.250000,23.000008,598.000000
-157.000000,24.153852,628.000000
-151.923080,24.307699,632.000000
-146.538467,24.423084,635.000000
-145.740387,25.346161,659.000000
-135.596161,24.653854,641.000000
-141.750015,27.000008,702.000000
-133.461548,26.692316,694.000000
-124.778854,26.269239,683.000000
-117.000008,26.000008,676.000000
-111.480774,26.230778,682.000000
-115.692314,28.923086,752.000000
-93.750008,25.000008,650.000000
-91.673088,26.192316,681.000000
-88.250008,27.153854,706.000000
-73.269241,24.423084,635.000000
-69.596161,25.307699,658.000000
-72.884621,29.153854,758.000000
-58.932701,26.192316,681.000000
-53.846161,26.923084,700.000000
-46.913471,26.807701,697.000000
-38.480778,25.653854,667.000000
-31.057699,24.846161,646.000000
-24.192314,24.192314,629.000000
-18.865393,25.153854,654.000000
-13.769239,27.538469,716.000000
-7.298086,29.192316,759.000000
-0.000008,25.230776,656.000000
6.461531,25.846161,672.000000
13.769222,27.538469,716.000000
18.576916,24.769238,644.000000
27.346146,27.346163,711.000000
31.634607,25.307699,658.000000
40.730762,27.153854,706.000000
45.634609,26.076931,678.000000
48.692299,24.346161,633.000000
57.721146,25.653854,667.000000
64.519226,25.807699,671.000000
67.903839,24.692314,642.000000
80.192299,26.730778,695.000000
84.124992,25.884623,673.000000
87.769226,25.076931,652.000000
93.461533,24.923084,648.000000
94.153839,23.538469,612.000000
101.836533,23.961546,623.000000
108.865379,24.192314,629.000000
106.874992,22.500008,585.000000
123.461533,24.692314,642.000000
130.240372,24.807699,645.000000
144.057678,26.192316,681.000000
147.288452,25.615393,666.000000
151.846146,25.307699,658.000000
151.201920,24.192314,629.000000
162.250000,24.961546,649.000000
179.394226,26.576931,691.000000
177.423065,25.346161,659.000000
210.807678,29.076931,756.000000
204.807678,27.307701,710.000000
213.124985,27.500008,715.000000
188.307678,23.538469,612.000000
208.153839,25.230776,656.000000
224.596146,26.423084,687.000000
221.442307,25.307699,658.000000
228.115372,25.346161,659.000000
229.115372,24.769238,644.000000
230.923065,24.307699,632.000000
319.125000,32.730778,851.000000
355.000000,35.500011,923.000000
357.567291,34.884624,907.000000
394.961517,37.615395,978.000000
396.509613,36.884624,959.000000
427.730743,38.884628,1011.000000
417.548065,37.115395,965.000000
430.807678,37.461548,974.000000
432.038452,36.769241,956.000000
443.538452,36.961548,961.000000
459.375000,37.500011,975.000000
489.903839,39.192318,1019.000000
498.721130,39.115395,1017.000000
489.000000,37.615395,978.000000
499.423065,37.692318,980.000000
534.807678,39.615395,1030.000000
514.038452,37.384628,972.000000
523.923096,37.423088,973.000000
539.307678,37.846165,984.000000
581.115356,40.076935,1042.000000
544.615356,36.923088,960.000000
556.730774,37.115395,965.000000
588.298096,38.576935,1003.000000
594.365356,38.346165,997.000000
588.201904,37.346165,971.000000
630.153809,39.384628,1024.000000
603.125000,37.115395,965.000000
621.288452,37.653858,979.000000
667.423035,39.846165,1036.000000
672.807678,39.576935,1029.000000
693.980774,40.230782,1046.000000
695.961548,39.769241,1034.000000
675.182678,38.038471,989.000000
711.000000,39.500011,1027.000000
720.875000,39.500011,1027.000000
699.442322,37.807705,983.000000
741.346130,39.538475,1028.000000
724.923096,38.153858,992.000000
763.336548,39.653858,1031.000000
789.750000,40.500011,1053.000000
784.682678,39.730782,1033.000000
-175.384613,6.576926,228.000000
-263.586548,10.009620,347.000000
-267.750000,10.298081,357.000000
-276.163452,10.759620,373.000000
-288.653839,11.394236,395.000000
-280.528839,11.221158,389.000000
-289.596161,11.740389,407.000000
-249.884613,10.269235,356.000000
-266.538452,11.105774,385.000000
-158.384613,6.692310,232.000000
-168.942307,7.240387,251.000000
-167.192307,7.269234,252.000000
-232.115387,10.240389,355.000000
-164.923080,7.384618,256.000000
-158.653854,7.211541,250.000000
-231.250000,10.673081,370.000000
-233.230774,10.932696,379.000000
-213.836548,10.182696,353.000000
-152.615387,7.384618,256.000000
-220.538467,10.846158,376.000000
-197.307693,9.865389,342.000000
-202.528854,10.298081,357.000000
-201.326935,10.413465,361.000000
-196.211548,10.326927,358.000000
-194.384613,10.413465,361.000000
-197.788467,10.788465,374.000000
-129.288467,7.182695,249.000000
-204.355774,11.567312,401.000000
-186.500000,10.759620,373.000000
-239.798080,14.105775,489.000000
-202.403854,12.144236,421.000000
-173.855774,10.644235,369.000000
-192.923080,12.057697,418.000000
-188.903854,12.057697,418.000000
-171.173080,11.163465,387.000000
-242.307693,16.153852,560.000000
-177.692307,12.115390,420.000000
-213.346161,14.884622,516.000000
-201.115387,14.365391,498.000000
-192.778854,14.105775,489.000000
-195.384628,14.653852,508.000000
-184.500000,14.192313,492.000000
-205.711548,16.240391,563.000000
-215.951935,17.509623,607.000000
-203.884628,16.990391,589.000000
-183.750000,15.750007,546.000000
-164.442307,14.509622,503.000000
-183.403854,16.673084,578.000000
-161.538467,15.144237,525.000000
-172.586548,16.701929,579.000000
-176.826935,17.682699,613.000000
-165.355774,17.105776,593.000000
-165.576935,17.740391,615.000000
-156.288467,17.365391,602.000000
-143.750000,16.586546,575.000000
-142.307693,17.076929,592.000000
-145.846161,18.230776,632.000000
-143.528854,18.721161,649.000000
-148.923080,20.307701,704.000000
-150.028854,21.432701,743.000000
-150.576935,22.586548,783.000000
-130.259628,20.567316,713.000000
-121.846161,20.307701,704.000000
-115.730774,20.423084,708.000000
-119.076935,22.326931,774.000000
-91.730774,18.346161,636.000000
-95.173088,20.394239,707.000000
-81.875008,18.894238,655.000000
-79.269241,19.817316,687.000000
-67.163467,18.317314,635.000000
-67.211548,20.163469,699.000000
-54.951931,18.317314,635.000000
-54.538471,20.451931,709.000000
-43.951931,18.836546,653.000000
-36.057701,18.028852,625.000000
-30.288469,18.173084,630.000000
-25.538469,19.153854,664.000000
-19.586546,19.586546,679.000000
-12.365392,18.548084,643.000000
-6.240392,18.721161,649.000000
-0.000008,19.932701,691.000000
6.644223,19.932701,691.000000
12.769223,19.153854,664.000000
21.519222,21.519239,746.000000
25.230762,18.923084,656.000000
30.048069,18.028852,625.000000
37.673069,18.836546,653.000000
42.740376,18.317314,635.000000
59.615376,22.355778,775.000000
59.105762,19.701931,683.000000
64.326912,19.298084,669.000000
76.048065,20.740393,719.000000
73.038452,18.259623,633.000000
85.124992,19.644239,681.000000
89.923073,19.269238,668.000000
92.019226,18.403854,638.000000
103.384605,19.384623,672.000000
116.384605,20.538469,712.000000
115.442299,19.240393,667.000000
117.471146,18.548084,643.000000
124.807686,18.721161,649.000000
126.605759,18.086546,627.000000
143.211533,19.528854,677.000000
140.432678,18.317314,635.000000
147.461533,18.432699,639.000000
155.048065,18.605776,645.000000
163.250000,18.836546,653.000000
158.625000,17.625008,611.000000
170.961533,18.317314,635.000000
178.461533,18.461546,640.000000
184.326920,18.432699,639.000000
203.884613,19.730778,684.000000
206.461533,19.355778,671.000000
218.942307,19.903854,690.000000
222.961533,19.673084,682.000000
218.413452,18.721161,649.000000
243.692307,20.307701,704.000000
234.096146,18.980776,658.000000
227.269226,17.942314,622.000000
313.500000,24.115395,836.000000
341.153839,25.586548,887.000000
359.932678,26.336550,913.000000
419.596130,29.971167,1039.000000
388.240387,27.086550,939.000000
408.692291,27.865396,966.000000
400.673065,26.711550,926.000000
458.230743,29.884626,1036.000000
436.557678,27.865396,966.000000
455.538452,28.471165,987.000000
442.413452,27.086550,939.000000
458.653839,27.519241,954.000000
479.596130,28.211550,978.000000
493.500000,28.471165,987.000000
500.951904,28.355780,983.000000
503.134613,27.951935,969.000000
526.730774,28.730782,996.000000
550.846130,29.509626,1023.000000
528.346130,27.807703,964.000000
557.134583,28.817320,999.000000
541.211548,27.519241,954.000000
547.500000,27.375011,949.000000
587.711548,28.903858,1002.000000
600.923096,29.076935,1008.000000
614.250000,29.250011,1014.000000
587.076904,27.519241,954.000000
609.375000,28.125011,975.000000
658.730774,29.942320,1038.000000
670.644226,30.028858,1041.000000
638.153809,28.153858,976.000000
640.240356,27.836550,965.000000
682.500000,29.250011,1014.000000
688.836548,29.105782,1009.000000
677.076904,28.211550,978.000000
740.528809,30.432705,1055.000000
727.192322,29.480782,1022.000000
712.500000,28.500011,988.000000
748.307678,29.538473,1024.000000
756.673096,29.480782,1022.000000
823.500000,31.673090,1098.000000
740.625000,28.125011,975.000000
-263.846161,6.596158,343.000000
-192.182693,4.865387,253.000000
-177.000000,4.538464,236.000000
-276.163452,7.173081,373.000000
-171.730774,4.519233,235.000000
-270.432709,7.211543,375.000000
-254.019241,6.865389,357.000000
-177.586548,4.865387,253.000000
-160.615387,4.461541,232.000000
-236.211548,6.653850,346.000000
-261.153839,7.461543,388.000000
-225.576920,6.538465,340.000000
-236.038467,6.942312,361.000000
-156.548080,4.673079,243.000000
-223.384613,6.769235,352.000000
-158.125000,4.865387,253.000000
-145.846161,4.557695,237.000000
-140.538467,4.461541,232.000000
-144.865387,4.673079,243.000000
-141.942307,4.653849,242.000000
-148.846161,4.961542,258.000000
-196.855774,6.673081,347.000000
-194.634613,6.711543,349.000000
-137.567307,4.826926,251.000000
-191.692307,6.846158,356.000000
-189.855774,6.903850,359.000000
-124.096153,4.596157,239.000000
-176.836548,6.673081,347.000000
-197.000000,7.576928,394.000000
-186.836548,7.326928,381.000000
-190.865387,7.634620,397.000000
-182.807693,7.461543,388.000000
-175.384613,7.307697,380.000000
-184.836548,7.865389,409.000000
-185.326935,8.057697,419.000000
-181.298080,8.057697,419.000000
-178.961548,8.134621,423.000000
-196.807693,9.153852,476.000000
-231.807693,11.038468,574.000000
-195.144241,9.519237,495.000000
-208.846161,10.442314,543.000000
-178.875000,9.173082,477.000000
-209.730774,11.038468,574.000000
-176.105774,9.519237,495.000000
-196.961548,10.942314,569.000000
-180.721161,10.326929,537.000000
-170.000000,10.000006,520.000000
-179.596161,10.884622,566.000000
-152.923080,9.557698,497.000000
-177.951935,11.480776,597.000000
-186.346161,12.423084,646.000000
-152.250000,10.500007,546.000000
-147.807693,10.557698,549.000000
-154.730774,11.461545,596.000000
-158.500000,12.192315,634.000000
-143.028854,11.442314,595.000000
-152.076935,12.673084,659.000000
-144.192322,12.538469,652.000000
-140.673080,12.788469,665.000000
-128.625000,12.250008,637.000000
-151.538467,15.153855,788.000000
-128.615387,13.538469,704.000000
-133.096161,14.788470,769.000000
-111.153854,13.076931,680.000000
-116.923088,14.615394,760.000000
-82.067314,10.942314,569.000000
-100.961548,14.423085,750.000000
-82.875008,12.750008,663.000000
-73.730774,12.288469,639.000000
-70.019241,12.730777,662.000000
-67.788467,13.557700,705.000000
-57.288467,12.730777,662.000000
-50.230778,12.557700,653.000000
-41.865391,11.961546,622.000000
-38.076931,12.692315,660.000000
-32.692314,13.076931,680.000000
-26.692316,13.346162,694.000000
-19.673084,13.115393,682.000000
-12.423084,12.423084,646.000000
-6.086546,12.173084,633.000000
-0.000008,12.807700,666.000000
6.115377,12.230777,636.000000
13.788453,13.788469,717.000000
22.413452,14.942317,777.000000
25.730762,12.865393,669.000000
29.471148,11.788468,613.000000
44.019222,14.673085,763.000000
47.249992,13.500008,702.000000
51.153839,12.788469,665.000000
58.413452,12.980777,675.000000
59.230762,11.846161,616.000000
74.567299,13.557700,705.000000
80.423065,13.403854,697.000000
79.874992,12.288469,639.000000
90.326912,12.903853,671.000000
97.211533,12.961546,674.000000
103.230759,12.903853,671.000000
115.894226,13.634624,709.000000
106.961533,11.884623,618.000000
129.894226,13.673085,711.000000
120.961533,12.096161,629.000000
129.230759,12.307699,640.000000
145.538452,13.230777,688.000000
141.980759,12.346161,642.000000
146.076920,12.173084,633.000000
160.817307,12.865393,669.000000
164.000000,12.615392,656.000000
202.759613,15.019239,781.000000
169.884613,12.134623,631.000000
207.182678,14.288470,743.000000
203.653839,13.576931,706.000000
201.499985,13.000008,676.000000
185.230759,11.576930,602.000000
201.490372,12.211546,635.000000
218.711533,12.865393,669.000000
215.721146,12.326930,641.000000
228.807678,12.711546,661.000000
237.653839,12.846162,668.000000
233.846146,12.307699,640.000000
330.750000,16.961548,882.000000
375.384613,18.769241,976.000000
389.105743,18.980780,987.000000
387.288452,18.442318,959.000000
417.596130,19.423088,1010.000000
434.076904,19.730782,1026.000000
420.144226,18.673088,971.000000
451.596130,19.634626,1021.000000
445.144226,18.942320,985.000000
457.384613,19.057703,991.000000
454.663452,18.557703,965.000000
475.961517,19.038473,990.000000
485.480743,19.038473,990.000000
501.000000,19.269241,1002.000000
507.067291,19.134626,995.000000
501.576904,18.576935,966.000000
520.913452,18.942320,985.000000
551.923035,19.711550,1025.000000
533.826904,18.730780,974.000000
551.557678,19.019241,989.000000
582.625000,19.750011,1027.000000
580.384583,19.346165,1006.000000
588.884583,19.307703,1004.000000
611.057678,19.711550,1025.000000
634.240356,20.134628,1047.000000
638.769226,19.961550,1038.000000
631.250000,19.423088,1010.000000
631.442322,19.134626,995.000000
675.798035,20.173088,1049.000000
678.692322,19.961550,1038.000000
674.740356,19.557703,1017.000000
639.423096,18.269241,950.000000
686.105774,19.326935,1005.000000
684.692322,19.019241,989.000000
730.000000,20.000011,1040.000000
712.961548,19.269241,1002.000000
730.528809,19.480782,1013.000000
749.038452,19.711550,1025.000000
767.778809,19.942320,1037.000000
766.500000,19.653858,1022.000000
790.759583,20.019243,1041.000000
-188.461548,2.355772,245.000000
-158.000000,2.000002,208.000000
-189.000000,2.423080,252.000000
-289.490387,3.759620,391.000000
-256.500000,3.375004,351.000000
-263.942322,3.519235,366.000000
-250.461548,3.384619,352.000000
-164.250000,2.250003,234.000000
-165.461548,2.298080,239.000000
-249.182693,3.509619,365.000000
-254.423080,3.634620,378.000000
-159.230774,2.307695,240.000000
-241.269241,3.548081,369.000000
-159.125000,2.375003,247.000000
-232.269241,3.519235,366.000000
-221.875000,3.413465,355.000000
-209.846161,3.278850,341.000000
-156.894241,2.490388,259.000000
-209.250000,3.375004,351.000000
-148.980774,2.442311,254.000000
-212.884613,3.548081,369.000000
-193.451920,3.278850,341.000000
-199.096161,3.432696,357.000000
-198.951935,3.490389,363.000000
-189.000000,3.375004,351.000000
-198.317307,3.605773,375.000000
-184.846161,3.423081,356.000000
-218.115387,4.115389,428.000000
-201.500000,3.875005,403.000000
-190.759613,3.740389,389.000000
-221.634628,4.432698,461.000000
-176.682693,3.605773,375.000000
-176.769241,3.682697,383.000000
-218.278854,4.644236,483.000000
-183.115387,3.980774,414.000000
-206.394241,4.586544,477.000000
-176.423080,4.009620,417.000000
-202.182693,4.701929,489.000000
-200.711548,4.778852,497.000000
-205.394241,5.009621,521.000000
-196.923080,4.923083,512.000000
-202.875000,5.201929,541.000000
-194.019241,5.105775,531.000000
-208.836548,5.644238,587.000000
-186.923080,5.192314,540.000000
-196.875000,5.625007,585.000000
-162.153854,4.769237,496.000000
-195.461548,5.923084,616.000000
-172.307693,5.384622,560.000000
-170.201935,5.490391,571.000000
-178.269241,5.942315,618.000000
-157.826935,5.442314,566.000000
-161.269241,5.759622,599.000000
-167.192322,6.192315,644.000000
-160.750000,6.182700,643.000000
-154.807693,6.192315,644.000000
-150.923080,6.288469,654.000000
-150.605774,6.548085,681.000000
-140.038467,6.365392,662.000000
-144.980774,6.903854,718.000000
-134.423080,6.721162,699.000000
-124.230774,6.538469,680.000000
-115.615395,6.423085,668.000000
-113.278854,6.663469,693.000000
-110.153854,6.884624,716.000000
-92.740395,6.182700,643.000000
-86.692314,6.192315,644.000000
-89.625008,6.894239,717.000000
-86.307701,7.192316,748.000000
-68.115395,6.192315,644.000000
-74.615395,7.461547,776.000000
-57.288467,6.365392,662.000000
-49.769238,6.221161,647.000000
-42.807701,6.115392,636.000000
-38.769238,6.461546,672.000000
-33.750008,6.750008,702.000000
-25.384623,6.346161,660.000000
-19.500008,6.500008,676.000000
-13.269238,6.634624,690.000000
-5.923084,5.923084,616.000000
-0.000007,6.144238,639.000000
6.605762,6.605777,687.000000
12.749992,6.375008,663.000000
18.634607,6.211546,646.000000
24.653839,6.163469,641.000000
32.596146,6.519238,678.000000
36.519222,6.086546,633.000000
47.586529,6.798085,707.000000
50.769222,6.346161,660.000000
55.903839,6.211546,646.000000
69.134605,6.913470,719.000000
66.740379,6.067315,631.000000
73.499992,6.125007,637.000000
84.874992,6.528854,679.000000
95.442299,6.817316,709.000000
88.701920,5.913468,615.000000
101.846146,6.365392,662.000000
108.538452,6.384623,664.000000
115.615379,6.423085,668.000000
116.192299,6.115392,636.000000
132.307678,6.615393,688.000000
136.096146,6.480777,674.000000
133.269226,6.057700,630.000000
142.644226,6.201931,645.000000
157.615372,6.567316,683.000000
179.567307,7.182701,747.000000
164.250000,6.317315,657.000000
161.221146,5.971161,621.000000
170.153839,6.076931,632.000000
178.461533,6.153853,640.000000
195.865372,6.528854,679.000000
223.259613,7.201931,749.000000
204.615372,6.394238,665.000000
222.115372,6.730777,700.000000
219.692307,6.461546,672.000000
220.432678,6.298084,655.000000
230.192307,6.394238,665.000000
252.240372,6.817316,709.000000
238.596146,6.278853,653.000000
346.500000,8.884626,924.000000
381.538452,9.538473,992.000000
381.221130,9.298088,967.000000
409.096130,9.740396,1013.000000
419.250000,9.750011,1014.000000
411.653839,9.355781,973.000000
411.490387,9.144241,951.000000
426.384613,9.269242,964.000000
427.971130,9.105780,947.000000
447.692291,9.326934,970.000000
458.432678,9.355781,973.000000
491.826904,9.836550,1023.000000
475.182678,9.317319,969.000000
509.500000,9.798089,1019.000000
514.201904,9.701935,1009.000000
508.326904,9.413473,979.000000
510.336517,9.278857,965.000000
560.000000,10.000012,1040.000000
529.442322,9.288472,966.000000
549.326904,9.471165,985.000000
549.153809,9.307703,968.000000
570.000000,9.500011,988.000000
600.615356,9.846166,1024.000000
589.000000,9.500011,988.000000
614.250000,9.750011,1014.000000
638.769226,9.980782,1038.000000
618.750000,9.519242,990.000000
625.730774,9.480781,986.000000
665.490356,9.932704,1033.000000
646.653809,9.509626,989.000000
676.067322,9.798089,1019.000000
700.000000,10.000012,1040.000000
690.201904,9.721166,1011.000000
691.615356,9.605781,999.000000
734.211548,10.057704,1046.000000
717.230774,9.692319,1008.000000
708.173096,9.442319,982.000000
754.153809,9.923089,1032.000000
767.778809,9.971166,1037.000000
776.250000,9.951935,1035.000000
790.759583,10.009627,1041.000000
-186.923080,0.000003,243.000000
-165.596161,0.000002,218.000000
-171.000000,0.000003,228.000000
-269.500000,0.000004,364.000000
-265.269226,0.000004,363.000000
-257.451935,0.000004,357.000000
-264.692322,0.000004,372.000000
-136.173080,0.000002,194.000000
-249.923080,0.000004,361.000000
-238.259613,0.000004,349.000000
-170.288467,0.000003,253.000000
-165.865387,0.000003,250.000000
-163.461548,0.000003,250.000000
-150.105774,0.000003,233.000000
-224.019241,0.000004,353.000000
-148.750000,0.000003,238.000000
-154.461548,0.000003,251.000000
-149.625000,0.000003,247.000000
-139.500000,0.000003,234.000000
-150.740387,0.000003,257.000000
-146.538467,0.000003,254.000000
-144.663467,0.000003,255.000000
-130.500000,0.000003,234.000000
-191.826920,0.000004,350.000000
-198.692307,0.000004,369.000000
-192.500000,0.000004,364.000000
-178.096161,0.000004,343.000000
-201.807693,0.000005,396.000000
-199.500000,0.000005,399.000000
-188.307693,0.000004,384.000000
-225.000000,0.000005,468.000000
-173.384613,0.000004,368.000000
-167.076935,0.000004,362.000000
-179.413467,0.000005,397.000000
-224.692307,0.000006,508.000000
-185.625000,0.000005,429.000000
-195.461548,0.000005,462.000000
-166.625000,0.000005,403.000000
-219.692307,0.000006,544.000000
-193.173080,0.000006,490.000000
-200.000000,0.000006,520.000000
-187.500000,0.000006,500.000000
-219.230774,0.000007,600.000000
-189.269241,0.000006,532.000000
-202.846161,0.000007,586.000000
-183.413467,0.000006,545.000000
-158.557693,0.000006,485.000000
-182.769241,0.000007,576.000000
-180.615387,0.000007,587.000000
-170.201935,0.000007,571.000000
-170.480774,0.000007,591.000000
-159.778854,0.000007,573.000000
-171.500000,0.000007,637.000000
-163.298080,0.000007,629.000000
-153.250000,0.000007,613.000000
-155.769241,0.000007,648.000000
-145.615387,0.000007,631.000000
-151.711548,0.000008,686.000000
-151.038467,0.000008,714.000000
-140.134628,0.000008,694.000000
-132.500015,0.000008,689.000000
-128.615387,0.000008,704.000000
-135.519241,0.000009,783.000000
-122.596161,0.000009,750.000000
-116.461548,0.000009,757.000000
-89.134621,0.000007,618.000000
-101.230782,0.000009,752.000000
-79.000008,0.000007,632.000000
-78.692314,0.000008,682.000000
-72.663467,0.000008,687.000000
-76.153854,0.000009,792.000000
-58.759624,0.000008,679.000000
-48.461544,0.000007,630.000000
-47.721161,0.000008,709.000000
-40.673084,0.000008,705.000000
-30.000008,0.000007,624.000000
-26.692316,0.000008,694.000000
-18.836546,0.000007,653.000000
-12.115392,0.000007,630.000000
-5.653853,0.000007,588.000000
-0.000008,0.000008,689.000000
6.115377,0.000007,636.000000
12.730762,0.000008,662.000000
19.903839,0.000008,690.000000
26.384607,0.000008,686.000000
31.249992,0.000007,650.000000
44.480759,0.000009,771.000000
48.057686,0.000008,714.000000
47.615379,0.000007,619.000000
65.682686,0.000009,759.000000
62.115376,0.000007,646.000000
67.903839,0.000007,642.000000
78.807686,0.000008,683.000000
84.124992,0.000008,673.000000
92.211533,0.000008,685.000000
97.788452,0.000008,678.000000
114.461533,0.000009,744.000000
114.913452,0.000008,703.000000
117.519226,0.000008,679.000000
115.278839,0.000007,631.000000
119.807686,0.000007,623.000000
142.153839,0.000008,704.000000
143.211533,0.000008,677.000000
144.634613,0.000007,654.000000
139.615372,0.000007,605.000000
154.567307,0.000007,643.000000
165.500000,0.000008,662.000000
173.423065,0.000008,668.000000
172.038452,0.000007,639.000000
206.346146,0.000008,740.000000
183.173065,0.000007,635.000000
176.163452,0.000007,591.000000
198.769226,0.000007,646.000000
226.557678,0.000008,714.000000
216.423065,0.000008,662.000000
227.836533,0.000008,677.000000
220.846146,0.000007,638.000000
251.884613,0.000008,708.000000
223.615372,0.000007,612.000000
334.500000,0.000010,892.000000
395.769226,0.000012,1029.000000
393.048065,0.000011,997.000000
421.211517,0.000012,1043.000000
405.605743,0.000011,981.000000
409.961517,0.000011,969.000000
434.423065,0.000012,1004.000000
425.500000,0.000011,962.000000
438.365387,0.000011,970.000000
479.538452,0.000012,1039.000000
476.336517,0.000012,1011.000000
493.269226,0.000012,1026.000000
489.403839,0.000011,998.000000
513.500000,0.000012,1027.000000
523.884583,0.000012,1028.000000
538.442322,0.000012,1037.000000
513.509583,0.000011,971.000000
555.153809,0.000012,1031.000000
542.048096,0.000011,989.000000
577.211548,0.000012,1035.000000
566.740356,0.000011,999.000000
583.269226,0.000012,1011.000000
577.740356,0.000011,985.000000
614.038452,0.000012,1030.000000
617.278809,0.000012,1019.000000
632.000000,0.000012,1027.000000
662.500000,0.000012,1060.000000
664.442322,0.000012,1047.000000
671.288452,0.000012,1042.000000
682.615356,0.000012,1044.000000
682.701904,0.000012,1029.000000
665.673096,0.000011,989.000000
693.615356,0.000012,1016.000000
713.076904,0.000012,1030.000000
718.067322,0.000012,1023.000000
737.865356,0.000012,1037.000000
710.336548,0.000011,985.000000
763.653809,0.000012,1045.000000
761.115356,0.000012,1028.000000
743.250000,0.000011,991.000000
748.980774,0.000011,986.000000
-195.384613,-2.442305,254.000000
-195.980774,-2.480766,258.000000
-185.250000,-2.374997,247.000000
-270.240387,-3.509611,365.000000
-279.153839,-3.673073,382.000000
-247.355774,-3.298073,343.000000
-276.076935,-3.730765,388.000000
-242.865387,-3.326919,346.000000
-239.538467,-3.326919,346.000000
-247.134613,-3.480765,362.000000
-234.903854,-3.355765,349.000000
-237.519241,-3.442304,358.000000
-166.076920,-2.442305,254.000000
-154.615387,-2.307690,240.000000
-234.173080,-3.548073,369.000000
-151.250000,-2.326920,242.000000
-212.923080,-3.326919,346.000000
-228.375000,-3.624996,377.000000
-212.230774,-3.423073,356.000000
-204.115387,-3.346150,348.000000
-204.230774,-3.403842,354.000000
-220.115387,-3.730765,388.000000
-198.538467,-3.423073,356.000000
-140.855774,-2.471151,257.000000
-198.692307,-3.548073,369.000000
-199.375000,-3.624996,377.000000
-200.423080,-3.711534,386.000000
-195.182693,-3.682688,383.000000
-176.500000,-3.394227,353.000000
-178.500000,-3.499996,364.000000
-191.346161,-3.826919,398.000000
-187.990387,-3.836534,399.000000
-176.769241,-3.682688,383.000000
-222.798080,-4.740379,493.000000
-178.250000,-3.874995,403.000000
-213.750000,-4.749994,494.000000
-196.307693,-4.461533,464.000000
-197.221161,-4.586533,477.000000
-158.307693,-3.769226,392.000000
-189.625000,-4.624994,481.000000
-197.307693,-4.932686,513.000000
-195.375000,-5.009609,521.000000
-195.480774,-5.144225,535.000000
-191.403854,-5.173071,538.000000
-197.653854,-5.490378,571.000000
-211.346161,-6.038455,628.000000
-194.519241,-5.721147,595.000000
-188.480774,-5.711532,594.000000
-195.076935,-6.096147,634.000000
-184.509628,-5.951916,619.000000
-184.326935,-6.144223,639.000000
-172.048080,-5.932685,617.000000
-171.769241,-6.134608,638.000000
-169.788467,-6.288454,654.000000
-163.500000,-6.288454,654.000000
-156.490387,-6.259608,651.000000
-154.615387,-6.442300,670.000000
-139.548080,-6.067300,631.000000
-135.596161,-6.163454,641.000000
-128.019241,-6.096147,634.000000
-128.269241,-6.413454,667.000000
-120.028854,-6.317300,657.000000
-117.000008,-6.499992,676.000000
-112.625008,-6.624992,689.000000
-118.153854,-7.384606,768.000000
-92.163467,-6.144223,639.000000
-87.769241,-6.269223,652.000000
-79.125008,-6.086531,633.000000
-76.384621,-6.365377,662.000000
-80.913467,-7.355761,765.000000
-63.846161,-6.384608,664.000000
-58.153854,-6.461531,672.000000
-54.846161,-6.855761,713.000000
-45.567314,-6.509608,677.000000
-42.692318,-7.115376,740.000000
-31.730778,-6.346146,660.000000
-25.115393,-6.278839,653.000000
-19.615393,-6.538454,680.000000
-11.692315,-5.846147,608.000000
-5.682699,-5.682685,591.000000
-0.000007,-6.269223,652.000000
6.326916,-6.326916,658.000000
14.519222,-7.259607,755.000000
18.548069,-6.182685,643.000000
24.615377,-6.153839,640.000000
34.134605,-6.826915,710.000000
40.788452,-6.798069,707.000000
40.855762,-5.836532,607.000000
59.230759,-7.403837,770.000000
53.913456,-5.990377,623.000000
64.903839,-6.490377,675.000000
70.336533,-6.394223,665.000000
80.653839,-6.721146,699.000000
85.374992,-6.567300,683.000000
90.999992,-6.499992,676.000000
97.788452,-6.519223,678.000000
104.461533,-6.528838,679.000000
106.086533,-6.240377,649.000000
122.019226,-6.778838,705.000000
114.913452,-6.048069,629.000000
148.846146,-7.442299,774.000000
136.298065,-6.490377,675.000000
144.692307,-6.576915,684.000000
140.875000,-6.124993,637.000000
147.230759,-6.134608,638.000000
155.769226,-6.230762,648.000000
187.249985,-7.201914,749.000000
194.451920,-7.201914,749.000000
187.115372,-6.682684,695.000000
177.625000,-6.124993,637.000000
197.596146,-6.586531,685.000000
197.923065,-6.384608,664.000000
204.000000,-6.374992,663.000000
218.942307,-6.634607,690.000000
219.692307,-6.461531,672.000000
218.413452,-6.240377,649.000000
236.076920,-6.557684,682.000000
250.817307,-6.778838,705.000000
242.615372,-6.384608,664.000000
348.750000,-8.942297,930.000000
370.384613,-9.259604,963.000000
389.105743,-9.490374,987.000000
391.326904,-9.317297,969.000000
406.019226,-9.442296,982.000000
424.769226,-9.653834,1004.000000
437.884613,-9.730758,1012.000000
439.211517,-9.548065,993.000000
453.730743,-9.653834,1004.000000
452.307678,-9.423066,980.000000
462.673065,-9.442296,982.000000
453.365387,-9.067297,943.000000
499.211517,-9.788450,1018.000000
511.000000,-9.826911,1022.000000
502.990387,-9.490374,987.000000
509.365387,-9.432681,981.000000
523.028809,-9.509604,989.000000
557.307678,-9.951911,1035.000000
537.115356,-9.423066,980.000000
562.711548,-9.701912,1009.000000
586.028809,-9.932680,1033.000000
567.115356,-9.451912,983.000000
575.394226,-9.432681,981.000000
594.365356,-9.586527,997.000000
599.711548,-9.519219,990.000000
617.846130,-9.653834,1004.000000
646.250000,-9.942296,1034.000000
632.076904,-9.576912,996.000000
653.250000,-9.749989,1014.000000
632.923096,-9.307681,968.000000
627.634583,-9.096143,946.000000
693.269226,-9.903834,1030.000000
702.490356,-9.894219,1029.000000
724.846130,-10.067296,1047.000000
720.875000,-9.874989,1027.000000
726.480774,-9.817296,1021.000000
752.163452,-10.028834,1043.000000
770.230774,-10.134604,1054.000000
773.701904,-10.048065,1045.000000
767.250000,-9.836527,1023.000000
840.894226,-10.644218,1107.000000
-196.153854,-4.903843,255.000000
-167.115387,-4.230767,220.000000
-183.000000,-4.692305,244.000000
-280.605774,-7.288457,379.000000
-183.423080,-4.826920,251.000000
-186.057693,-4.961535,258.000000
-274.653839,-7.423072,386.000000
-164.951920,-4.519228,235.000000
-168.923080,-4.692305,244.000000
-240.307693,-6.769227,352.000000
-233.557693,-6.673073,347.000000
-169.846161,-4.923074,256.000000
