-154.615387,139.153854,536.000000
-245.942322,228.980774,882.000000
-243.923080,235.211548,906.000000
-174.461548,174.461548,672.000000
-168.000015,174.461548,672.000000
-155.528854,167.971161,647.000000
-164.076935,184.586548,711.000000
-180.019241,211.326935,814.000000
-185.307709,227.423080,876.000000
-129.230774,166.153854,640.000000
-134.230774,181.211548,698.000000
-122.038467,173.423080,668.000000
-123.923088,185.884628,716.000000
-133.875015,212.625015,819.000000
-120.307701,203.019241,782.000000
-98.221161,176.798080,681.000000
-95.442314,184.067322,709.000000
-85.875008,178.355774,687.000000
-86.307701,194.192322,748.000000
-73.192314,179.653854,692.000000
-69.038467,186.403854,718.000000
-61.442314,184.326935,710.000000
-60.615395,204.576935,788.000000
-39.913467,153.951935,593.000000
-37.615391,169.269241,652.000000
-37.259624,201.201935,775.000000
-29.192316,197.048080,759.000000
-19.384623,174.461548,672.000000
-12.769238,172.384628,664.000000
-6.596162,178.096161,686.000000
-0.000008,174.980774,674.000000
6.355762,171.605774,661.000000
14.230761,192.115387,740.000000
20.105761,180.951935,697.000000
25.884607,174.721161,673.000000
32.211533,173.942322,670.000000
37.499992,168.750000,650.000000
53.711529,207.173080,798.000000
52.999992,178.875015,689.000000
65.076912,195.230774,752.000000
74.326912,200.682709,773.000000
70.759605,173.682693,669.000000
74.307686,167.192322,644.000000
81.624992,169.528854,653.000000
87.230759,168.230774,648.000000
111.923065,201.461548,776.000000
128.769226,217.298080,837.000000
105.105759,166.932693,643.000000
113.365379,170.048080,655.000000
114.182686,162.259628,625.000000
122.884605,165.894241,639.000000
178.096146,228.980774,882.000000
175.576920,215.480774,830.000000
181.346146,212.884628,820.000000
156.461533,176.019241,678.000000
160.576920,173.423080,668.000000
154.500000,160.442322,618.000000
208.471146,208.471161,803.000000
192.230759,185.365387,714.000000
253.471146,235.990402,909.000000
235.384613,211.846161,816.000000
203.884613,177.576935,684.000000
195.384613,164.855774,635.000000
220.846146,180.692322,696.000000
221.653839,176.019241,678.000000
304.567291,234.951935,905.000000
321.576904,241.182709,929.000000
268.250000,195.750015,754.000000
245.173065,174.201935,671.000000
304.125000,210.548080,811.000000
316.923065,213.923080,824.000000
352.048065,231.836548,893.000000
376.788452,242.221161,933.000000
329.942291,207.173080,798.000000
343.538452,210.807709,812.000000
365.192291,219.115387,844.000000
422.403839,247.932709,955.000000
431.134613,247.673080,954.000000
445.384613,250.528854,965.000000
431.576904,237.807709,916.000000
389.423065,210.288467,810.000000
413.884613,219.115387,844.000000
440.500000,228.721161,881.000000
520.826904,265.326935,1022.000000
503.134613,251.567322,969.000000
527.788452,259.096161,998.000000
552.461548,266.365387,1026.000000
510.259613,241.701935,931.000000
549.326904,255.721161,985.000000
587.163452,268.701935,1035.000000
556.730774,250.528854,965.000000
557.798096,246.894241,951.000000
556.211548,242.221161,933.000000
497.336517,213.144241,821.000000
548.307678,231.317322,891.000000
472.500000,196.269241,756.000000
604.788452,247.413467,953.000000
669.355774,269.740387,1039.000000
595.000000,236.250015,910.000000
572.567322,224.048080,863.000000
595.000000,229.500015,884.000000
625.346130,237.807709,916.000000
638.307678,239.365402,922.000000
595.230774,220.153854,848.000000
690.192322,251.826935,970.000000
631.730774,227.423080,876.000000
627.730774,223.009628,859.000000
639.692322,224.307709,864.000000
702.750000,243.259628,937.000000
657.826904,224.826935,866.000000
0.000000,4.000000,65300.000000
-293.971161,96.750008,387.000000
2.000000,4.000000,65300.000000
3.000000,4.000000,65300.000000
4.000000,4.000000,65300.000000
5.000000,4.000000,65300.000000
-817.557678,287.250000,1149.000000
-430.278839,153.250000,613.000000
8.000000,4.000000,65300.000000
-361.144226,132.250000,529.000000
10.000000,4.000000,65300.000000
-108.144234,40.750000,163.000000
-251.076935,96.000008,384.000000
-246.096161,95.500008,382.000000
-663.807678,261.500000,1046.000000
-565.625000,226.250015,905.000000
-252.923080,102.750008,411.000000
-663.923096,274.000000,1096.000000
-220.576935,92.500008,370.000000
-299.721161,127.750008,511.000000
-440.192322,190.750015,763.000000
-442.500000,195.000015,780.000000
-20.634615,9.250000,37.000000
-281.711548,128.500000,514.000000
-124.923080,58.000004,232.000000
-253.317307,119.750008,479.000000
-397.211548,191.250015,765.000000
-404.634613,198.500015,794.000000
-208.500000,104.250008,417.000000
-314.336548,160.250000,641.000000
-405.769226,211.000015,844.000000
31.000000,4.000000,65530.000000
-285.230774,154.500000,618.000000
-188.451935,104.250008,417.000000
-157.461548,89.000008,356.000000
35.000000,4.000000,65300.000000
-332.115387,196.250015,785.000000
-287.769226,174.000015,696.000000
-186.980774,115.750008,463.000000
-183.711548,116.500008,466.000000
-305.384613,198.500015,794.000000
-195.375000,130.250000,521.000000
-302.903870,207.250015,829.000000
-181.442307,127.500008,510.000000
-139.846161,101.000008,404.000000
-325.432709,241.750015,967.000000
-357.326935,273.250000,1093.000000
-204.346161,161.000000,644.000000
-208.307693,169.250015,677.000000
-180.932693,151.750000,607.000000
-169.615387,147.000000,588.000000
-307.288483,275.500000,1102.000000
-239.346161,222.250015,889.000000
-176.538467,170.000015,680.000000
-166.250000,166.250000,665.000000
-166.105774,172.750015,691.000000
-161.307693,174.750015,699.000000
-207.221161,234.250015,937.000000
-190.807709,225.500015,902.000000
-141.346161,175.000015,700.000000
-127.500008,165.750000,663.000000
-131.173080,179.500015,718.000000
-120.980774,174.750015,699.000000
-143.355774,219.250015,877.000000
-122.307701,198.750015,795.000000
-113.221161,196.250015,785.000000
-105.673088,196.250015,785.000000
-86.250008,172.500015,690.000000
-79.961548,173.250015,693.000000
-82.288467,194.500015,778.000000
-78.269241,203.500015,814.000000
-66.894241,193.250015,773.000000
-54.307701,176.500015,706.000000
-42.538467,158.000000,632.000000
-38.423084,166.500015,666.000000
-36.971161,192.250015,769.000000
-29.846163,194.000015,776.000000
-21.519239,186.500015,746.000000
-13.019238,169.250015,677.000000
-6.326931,164.500000,658.000000
-0.000008,169.000015,676.000000
6.240377,162.250000,649.000000
15.615376,203.000015,812.000000
20.711531,179.500015,718.000000
30.230761,196.500015,786.000000
31.923069,166.000000,664.000000
43.673069,189.250015,757.000000
53.980759,200.500015,802.000000
60.230759,195.750015,783.000000
65.423065,189.000015,756.000000
76.826912,199.750015,799.000000
71.711533,169.500015,678.000000
74.884605,162.250000,649.000000
84.374992,168.750015,675.000000
90.057686,167.250015,669.000000
119.423065,207.000015,828.000000
129.538452,210.500015,842.000000
114.749992,175.500015,702.000000
110.423073,159.500000,638.000000
105.778839,144.750000,579.000000
119.615379,155.500000,622.000000
157.096146,194.500015,778.000000
178.115372,210.500015,842.000000
181.788452,205.500015,822.000000
147.923065,160.250000,641.000000
156.009613,162.250000,649.000000
159.750000,159.750000,639.000000
175.240372,168.750015,675.000000
191.961533,178.250015,713.000000
228.932678,205.250015,821.000000
244.903839,212.250015,849.000000
189.875000,159.250000,637.000000
194.153839,157.750000,631.000000
199.269226,157.000000,628.000000
224.269226,171.500015,686.000000
306.250000,227.500015,910.000000
333.692291,241.000015,964.000000
266.471130,187.250015,749.000000
233.846146,160.000000,640.000000
303.750000,202.500015,810.000000
317.307678,206.250015,825.000000
357.961517,227.000015,908.000000
377.192291,233.500015,934.000000
374.182678,226.250015,905.000000
352.846130,208.500015,834.000000
309.807678,179.000015,716.000000
363.576904,205.500015,822.000000
445.596130,246.500015,986.000000
436.615387,236.500015,946.000000
490.942291,260.500000,1042.000000
446.634613,232.250015,929.000000
402.605774,205.250015,821.000000
434.000000,217.000015,868.000000
497.384613,244.000015,976.000000
513.519226,247.250015,989.000000
581.730774,275.000000,1100.000000
561.076904,260.500000,1042.000000
500.394226,228.250015,913.000000
482.961517,216.500015,866.000000
598.509583,263.750000,1055.000000
559.615356,242.500015,970.000000
639.913452,272.750000,1091.000000
599.134583,251.250015,1005.000000
494.307678,204.000015,816.000000
491.076904,199.500015,798.000000
585.000000,234.000015,936.000000
583.846130,230.000015,920.000000
679.663452,263.750000,1055.000000
691.115356,264.250000,1057.000000
656.826904,247.500015,990.000000
546.538452,203.000015,812.000000
710.682678,260.250000,1041.000000
664.615356,240.000015,960.000000
632.432678,225.250015,901.000000
649.634583,228.250015,913.000000
695.192322,241.000015,964.000000
662.076904,226.500015,906.000000
711.509583,240.250015,961.000000
720.000000,240.000015,960.000000
717.836548,236.250015,945.000000
0.000000,5.000000,65300.000000
1.000000,5.000000,65300.000000
-498.750000,159.855774,665.000000
3.000000,5.000000,65300.000000
4.000000,5.000000,65300.000000
5.000000,5.000000,65530.000000
6.000000,5.000000,65300.000000
-134.769226,46.153847,192.000000
8.000000,5.000000,65300.000000
-555.028870,195.432709,813.000000
-390.384613,139.423080,580.000000
11.000000,5.000000,65300.000000
-719.230774,264.423096,1100.000000
-668.067322,249.278854,1037.000000
14.000000,5.000000,65300.000000
-398.125000,153.125000,637.000000
-688.615417,268.990387,1119.000000
-407.076935,161.538467,672.000000
-396.442322,159.855774,665.000000
-382.423096,156.730774,652.000000
-492.692322,205.288467,854.000000
-382.365387,162.019241,674.000000
-460.096161,198.317322,825.000000
-497.653870,218.269241,908.000000
-346.769226,154.807693,644.000000
-414.615387,188.461548,784.000000
-275.192322,127.403854,530.000000
-564.653870,266.346161,1108.000000
-305.000000,146.634628,610.000000
-190.269241,93.269234,388.000000
-400.480774,200.240387,833.000000
-412.259613,210.336548,875.000000
-310.153839,161.538467,672.000000
-216.019241,114.903854,478.000000
-408.250000,221.875015,923.000000
-272.596161,151.442322,630.000000
-228.884628,130.048080,541.000000
-321.259613,186.778854,777.000000
-256.846161,152.884628,636.000000
-297.644226,181.490387,755.000000
-367.692322,229.807709,956.000000
-173.625000,111.298080,463.000000
-231.288467,152.163467,633.000000
-366.086548,247.355774,1029.000000
-259.961548,180.528854,751.000000
-217.403854,155.288467,646.000000
-277.557709,204.086548,849.000000
-204.980774,155.288467,646.000000
-213.846161,167.067322,695.000000
-244.721161,197.355774,821.000000
-244.326935,203.605774,847.000000
-208.576935,179.807693,748.000000
-245.000015,218.750015,910.000000
-196.269241,181.730774,756.000000
-169.000015,162.500015,676.000000
-195.192322,195.192322,812.000000
-194.307709,202.403854,842.000000
-154.365387,167.788467,698.000000
-173.673080,197.355774,821.000000
-113.278854,134.855774,561.000000
-128.461548,160.576935,668.000000
-147.250015,193.750015,806.000000
-140.365387,194.951935,811.000000
-103.471161,152.163467,633.000000
-104.615395,163.461548,680.000000
-82.788467,137.980774,574.000000
-79.019234,141.105774,587.000000
-88.250008,169.711548,706.000000
-87.000008,181.250015,754.000000
-71.605774,162.740387,677.000000
-68.269241,170.673080,710.000000
-40.500004,112.500008,468.000000
-43.923084,137.259628,571.000000
-47.250008,168.750015,702.000000
-40.038471,166.826935,694.000000
-30.865393,154.326935,642.000000
-26.923084,168.269241,700.000000
-18.057699,150.480774,626.000000
-13.038469,162.980774,678.000000
-6.519238,162.980774,678.000000
-0.000007,141.105774,587.000000
7.596145,189.903854,790.000000
13.442300,168.028854,699.000000
19.961531,166.346161,692.000000
25.923069,162.019241,674.000000
32.307686,161.538467,672.000000
44.307682,184.615387,768.000000
43.211533,154.326935,642.000000
52.461529,163.942322,682.000000
57.461533,159.615387,664.000000
66.923065,167.307693,696.000000
82.605759,187.740387,781.000000
89.538452,186.538467,776.000000
82.999992,159.615387,664.000000
87.096146,155.528854,647.000000
96.490379,160.817322,669.000000
100.769226,157.451935,655.000000
127.663452,187.740387,781.000000
141.057678,195.913467,815.000000
122.951912,161.778854,673.000000
134.038452,167.548080,697.000000
129.432678,154.086548,641.000000
125.865379,143.028854,595.000000
173.826920,188.942322,786.000000
191.076920,199.038467,828.000000
185.096146,185.096161,770.000000
167.999985,161.538467,672.000000
169.269226,156.730774,652.000000
174.730759,156.009628,649.000000
213.596146,184.134628,766.000000
205.673065,171.394241,713.000000
259.326904,209.134628,870.000000
251.076920,196.153854,816.000000
201.173065,152.403854,634.000000
244.211533,179.567322,747.000000
217.740372,155.528854,647.000000
241.615372,167.788467,698.000000
339.759613,229.567322,955.000000
354.788452,233.413467,971.000000
284.250000,182.211548,758.000000
268.846161,168.028854,699.000000
271.230774,165.384628,688.000000
276.230774,164.423080,684.000000
396.509613,230.528854,959.000000
461.153839,262.019257,1090.000000
381.634613,212.019241,882.000000
385.250000,209.375015,871.000000
405.375000,215.625015,897.000000
397.846130,207.211548,862.000000
489.528839,249.759628,1039.000000
525.480774,262.740387,1093.000000
442.817291,217.067322,903.000000
449.000000,215.865402,898.000000
464.769226,219.230774,912.000000
500.019226,231.490402,963.000000
557.932678,253.605774,1055.000000
567.538452,253.365402,1054.000000
486.144226,213.221161,887.000000
459.538452,198.076935,824.000000
486.182678,206.009628,857.000000
527.307678,219.711548,914.000000
595.336548,243.990402,1015.000000
620.596130,250.240402,1041.000000
560.336548,222.355774,925.000000
592.000000,231.250015,962.000000
566.250000,217.788467,906.000000
560.365356,212.259628,883.000000
626.192322,233.653854,972.000000
611.346130,224.759628,935.000000
658.817322,238.701935,993.000000
690.576904,246.634628,1026.000000
570.048096,200.721161,835.000000
459.000000,159.375000,663.000000
675.250000,231.250015,962.000000
697.307678,235.576935,980.000000
719.711548,239.903854,998.000000
685.461548,225.480774,938.000000
693.740356,225.240402,937.000000
672.750000,215.625015,897.000000
796.836548,252.163467,1049.000000
-486.923096,146.076935,633.000000
1.000000,6.000000,65300.000000
2.000000,6.000000,65300.000000
3.000000,6.000000,65300.000000
-600.692322,189.692322,822.000000
-461.538483,147.692322,640.000000
6.000000,6.000000,65300.000000
-699.115417,229.846161,996.000000
8.000000,6.000000,65300.000000
-374.798096,126.692314,549.000000
-647.500000,222.000015,962.000000
-758.336548,263.769257,1143.000000
-780.038452,275.307709,1193.000000
-601.711548,215.538467,934.000000
-479.769226,174.461548,756.000000
15.000000,6.000000,65300.000000
-378.461548,141.923080,615.000000
-430.096161,163.846161,710.000000
-372.596161,144.230774,625.000000
-382.423096,150.461548,652.000000
-612.692322,245.076935,1062.000000
-592.836548,241.153854,1045.000000
-264.903839,109.615387,475.000000
-408.865387,172.153854,746.000000
-324.153839,138.923080,602.000000
-334.759613,146.076935,633.000000
-302.711548,134.538467,583.000000
-351.125000,159.000015,689.000000
-455.000000,210.000015,910.000000
-296.682709,139.615387,605.000000
-303.846161,145.846161,632.000000
-296.826935,145.384628,630.000000
-503.538483,251.769241,1091.000000
-243.134628,124.153854,538.000000
-384.807709,200.769241,870.000000
-87.836540,46.846157,203.000000
-274.576935,149.769241,649.000000
-240.221161,134.076935,581.000000
-332.365387,189.923080,823.000000
-335.490387,196.384628,851.000000
-305.384613,183.230774,794.000000
-39.000000,24.000002,104.000000
-233.846161,147.692322,640.000000
-234.807693,152.307693,660.000000
-308.076935,205.384628,890.000000
-262.163483,179.769241,779.000000
-230.153854,162.461548,704.000000
-197.682693,143.769241,623.000000
-206.769241,155.076935,672.000000
-212.230774,164.307693,712.000000
-233.653854,186.923080,810.000000
-199.375015,165.000015,715.000000
-193.576935,165.923080,719.000000
-178.355774,158.538467,687.000000
-196.250015,181.153854,785.000000
-215.625015,207.000015,897.000000
-195.230774,195.230774,846.000000
-172.057709,179.538467,778.000000
-147.442322,160.846161,697.000000
-132.461548,151.384628,656.000000
-115.384621,138.461548,600.000000
-137.384628,173.538467,752.000000
-120.980774,161.307693,699.000000
-108.865395,153.692322,666.000000
-110.307701,165.461548,717.000000
-86.826927,138.923080,602.000000
-85.884621,147.230774,638.000000
-88.250008,162.923080,706.000000
-87.346161,174.692322,757.000000
-70.865395,154.615387,670.000000
-63.173084,151.615387,657.000000
-46.644238,124.384621,539.000000
-43.615391,130.846161,567.000000
-50.346161,172.615387,748.000000
-41.480778,165.923080,719.000000
-32.115391,154.153854,668.000000
-26.500008,159.000015,689.000000
-18.259623,146.076935,633.000000
-12.326930,147.923080,641.000000
-6.375008,153.000000,663.000000
-0.000009,180.230774,781.000000
6.730761,161.538467,700.000000
15.115376,181.384628,786.000000
18.086531,144.692322,627.000000
25.999992,156.000015,676.000000
36.730759,176.307693,764.000000
38.942299,155.769241,675.000000
46.105762,158.076935,685.000000
47.692299,143.076935,620.000000
55.990376,149.307693,647.000000
65.288452,156.692322,679.000000
83.557686,182.307709,790.000000
86.076912,172.153854,746.000000
94.624992,174.692322,757.000000
87.769226,150.461548,652.000000
99.519226,159.230774,690.000000
95.384605,143.076935,620.000000
128.153839,180.923080,784.000000
135.519226,180.692322,783.000000
148.894226,188.076935,815.000000
133.846146,160.615387,696.000000
130.038452,148.615387,644.000000
115.711533,126.230774,547.000000
191.740372,200.076935,867.000000
191.307678,191.307709,829.000000
197.836533,189.923080,823.000000
176.999985,163.384628,708.000000
163.557678,145.384628,630.000000
175.807678,150.692322,653.000000
192.124985,159.000015,689.000000
231.057678,184.846161,801.000000
250.384613,193.846161,840.000000
259.692291,194.769241,844.000000
213.548065,155.307693,673.000000
241.923065,170.769241,740.000000
215.721146,147.923080,641.000000
248.192307,165.461548,717.000000
344.740387,223.615402,969.000000
347.846130,219.692322,952.000000
278.250000,171.230774,742.000000
288.846130,173.307693,751.000000
253.884613,148.615387,644.000000
277.038452,158.307693,686.000000
372.942291,208.153854,902.000000
420.961517,229.615402,995.000000
422.307678,225.230774,976.000000
429.038452,223.846161,970.000000
360.182678,183.923080,797.000000
379.384613,189.692322,822.000000
464.086517,227.307709,985.000000
509.134613,244.384628,1059.000000
451.644226,212.538467,921.000000
432.000000,199.384628,864.000000
461.201904,208.846161,905.000000
468.346130,208.153854,902.000000
558.461548,243.692322,1056.000000
519.615356,222.692322,965.000000
537.115356,226.153854,980.000000
500.250000,207.000015,897.000000
502.067291,204.230774,885.000000
494.423065,197.769241,857.000000
574.807678,226.153854,980.000000
618.807678,239.538467,1038.000000
594.259583,226.384628,981.000000
593.230774,222.461548,964.000000
551.875000,203.769241,883.000000
508.326904,184.846161,801.000000
635.855774,227.769241,987.000000
642.076904,226.615402,982.000000
694.644226,241.615402,1047.000000
702.692322,240.923096,1044.000000
580.971130,196.384628,851.000000
554.538452,184.846161,801.000000
603.653809,198.461548,860.000000
647.500000,210.000015,910.000000
651.923096,208.615402,904.000000
704.461548,222.461548,964.000000
727.057678,226.615402,982.000000
615.750000,189.461548,821.000000
784.682678,238.384628,1033.000000
0.000000,7.000000,65300.000000
1.000000,7.000000,65300.000000
2.000000,7.000000,65300.000000
3.000000,7.000000,65300.000000
-511.538483,154.807693,700.000000
5.000000,7.000000,65300.000000
-263.980774,82.048080,371.000000
-580.490417,182.894241,827.000000
8.000000,7.000000,65300.000000
9.000000,7.000000,65300.000000
10.000000,7.000000,65300.000000
-333.057709,111.019234,502.000000
-573.423096,193.951935,877.000000
-336.932709,115.663467,523.000000
-605.423096,210.980774,954.000000
-401.875000,142.201935,643.000000
16.000000,7.000000,65300.000000
-307.125000,112.125008,507.000000
-390.480774,144.855774,655.000000
-639.326965,241.057709,1090.000000
-449.423096,172.278854,779.000000
-608.721191,237.298096,1073.000000
-435.000000,172.500015,780.000000
-307.471161,124.067314,561.000000
-346.230774,142.201935,643.000000
-465.384613,194.615402,880.000000
-419.019226,178.471161,807.000000
-321.567322,139.548080,631.000000
-346.500000,153.259628,693.000000
-312.865387,141.096161,638.000000
-368.269226,169.403854,766.000000
-307.663483,144.413467,653.000000
-232.615387,111.461548,504.000000
-287.875000,140.875000,637.000000
-182.230774,91.115387,412.000000
-275.192322,140.653854,636.000000
-286.423096,149.721161,677.000000
-325.394226,174.048080,787.000000
-421.615387,230.884628,1044.000000
-184.500000,103.500008,468.000000
-132.307693,76.076927,344.000000
-189.000000,111.461548,504.000000
-45.673077,27.644232,125.000000
-225.557693,140.211548,634.000000
-246.807693,157.682693,713.000000
-130.913467,86.028854,389.000000
-220.019241,148.836548,673.000000
-295.730774,206.115402,932.000000
-276.000000,198.375015,897.000000
-270.653870,200.807709,908.000000
-260.769226,199.923080,904.000000
-140.538467,111.461548,504.000000
-162.615387,133.576935,604.000000
-184.586548,157.240387,711.000000
-223.750015,197.932709,895.000000
-171.153854,157.461548,712.000000
-187.384628,179.576935,812.000000
-127.163467,127.163467,575.000000
-140.038467,146.403854,662.000000
-140.740387,154.144241,697.000000
-158.461548,182.230774,824.000000
-127.153854,153.923080,696.000000
-118.903854,151.932693,687.000000
-108.701927,147.067322,665.000000
-103.384621,148.615387,672.000000
-93.750008,143.750000,650.000000
-93.557701,153.701935,695.000000
-81.750008,144.634628,654.000000
-76.846161,147.288467,666.000000
-55.846161,116.769234,528.000000
-61.826931,142.201935,643.000000
-62.221161,159.009628,719.000000
-57.846161,166.307693,752.000000
-43.009624,141.317322,639.000000
-38.653854,148.173080,670.000000
-28.942314,133.134628,602.000000
-23.500008,135.125000,611.000000
-18.230776,139.769241,632.000000
-13.096162,150.605774,681.000000
-6.500008,149.500015,676.000000
-0.000008,145.298080,657.000000
6.336531,145.740387,659.000000
12.673069,145.740387,659.000000
19.413454,148.836548,673.000000
26.346146,151.490387,685.000000
33.317299,153.259628,693.000000
44.307682,169.846161,768.000000
46.711529,153.480774,694.000000
54.615376,157.019241,710.000000
61.528839,157.240387,711.000000
61.442299,141.317322,639.000000
74.884605,156.576935,708.000000
77.076912,147.730774,668.000000
95.749992,169.403854,766.000000
91.942299,151.048080,683.000000
88.701920,136.009628,615.000000
97.384605,139.990387,633.000000
110.826912,149.942322,678.000000
114.923073,146.846161,664.000000
117.288452,141.980774,642.000000
128.269226,147.509628,667.000000
132.259613,144.855774,655.000000
149.346146,156.134628,706.000000
131.365372,131.365387,594.000000
115.615379,110.798080,501.000000
152.403839,140.211548,634.000000
167.499985,148.173080,670.000000
211.846146,180.461548,816.000000
215.923065,177.365387,802.000000
187.942307,149.057693,674.000000
161.538452,123.846161,560.000000
234.884613,174.269241,788.000000
246.769226,177.365387,802.000000
254.163452,177.144241,801.000000
259.576904,175.596161,794.000000
253.076920,166.307693,752.000000
223.961533,143.086548,647.000000
294.932678,183.336548,829.000000
294.134613,178.028854,805.000000
324.375000,191.298080,865.000000
356.538452,205.009628,927.000000
340.615387,191.076935,864.000000
328.326904,179.798080,813.000000
337.384613,180.461548,816.000000
343.961517,179.798080,813.000000
414.086517,211.644241,957.000000
412.673065,206.336548,933.000000
313.182678,153.259628,693.000000
378.923065,181.567322,821.000000
456.076904,214.076935,968.000000
462.019226,212.528854,961.000000
494.798065,223.144241,1009.000000
546.500000,241.721161,1093.000000
508.086517,220.490402,997.000000
486.000000,207.000015,936.000000
493.942291,206.557709,934.000000
504.538452,207.221161,937.000000
540.403809,218.057709,986.000000
578.884583,229.557709,1038.000000
577.519226,225.134628,1018.000000
537.692322,206.115402,932.000000
514.980774,194.173080,878.000000
546.673096,202.798080,917.000000
643.932678,235.086548,1063.000000
660.923035,237.519241,1074.000000
610.000000,215.846161,976.000000
590.192322,205.673080,930.000000
641.653809,220.269241,996.000000
582.576904,197.048080,891.000000
682.038452,227.346161,1028.000000
657.596130,216.067322,977.000000
678.596130,219.826935,994.000000
679.153809,216.951935,981.000000
684.375000,215.625015,975.000000
657.461548,204.346161,924.000000
703.846130,215.846161,976.000000
668.653809,202.355774,915.000000
710.769226,212.307709,960.000000
681.750000,201.028854,909.000000
634.278809,184.663467,835.000000
0.000000,8.000000,65300.000000
1.000000,8.000000,65300.000000
2.000000,8.000000,65300.000000
-633.028870,180.865387,855.000000
4.000000,8.000000,65300.000000
5.000000,8.000000,65300.000000
-588.442322,174.942322,827.000000
-346.048096,104.288467,493.000000
8.000000,8.000000,65300.000000
-431.461548,133.692322,632.000000
-693.269226,217.884628,1030.000000
-575.221191,183.403854,867.000000
12.000000,8.000000,65300.000000
13.000000,8.000000,65300.000000
-661.269226,220.423096,1042.000000
-512.500000,173.461548,820.000000
-387.692322,133.269241,630.000000
-520.961548,181.923080,860.000000
-378.557709,134.326935,635.000000
-400.605774,144.480774,683.000000
-489.230774,179.384628,848.000000
-302.942322,112.961548,534.000000
-520.884644,197.576935,934.000000
-216.490387,83.557693,395.000000
-202.461548,79.538467,376.000000
-395.048096,158.019241,747.000000
-397.211548,161.826935,765.000000
-314.432709,130.519241,617.000000
-67.500000,28.557693,135.000000
-346.701935,149.557693,707.000000
-341.346161,150.192322,710.000000
-96.115387,43.153847,204.000000
-293.538483,134.538467,636.000000
-361.086548,169.019241,799.000000
-187.538467,89.692314,424.000000
-411.923096,201.384628,952.000000
-327.461548,163.730774,774.000000
-420.903870,215.346161,1018.000000
-207.173080,108.519234,513.000000
-260.192322,139.615387,660.000000
-261.923096,144.057693,681.000000
-297.750000,167.961548,794.000000
-323.730774,187.423080,886.000000
-229.115387,136.230774,644.000000
-298.384613,182.346161,862.000000
-216.730774,136.230774,644.000000
-192.557693,124.596161,589.000000
-239.567322,159.711548,755.000000
-293.538483,201.807709,954.000000
-264.394226,187.634628,887.000000
-250.096161,183.403854,867.000000
-174.278854,132.211548,625.000000
-162.076935,127.346161,602.000000
-213.663467,174.096161,823.000000
-222.250015,188.057709,889.000000
-188.221161,165.634628,783.000000
-185.076935,169.653854,802.000000
-143.307693,137.076935,648.000000
-137.288467,137.288467,649.000000
-164.163467,171.980774,813.000000
-159.423080,175.365387,829.000000
-116.009621,134.326935,635.000000
-121.500008,148.500015,702.000000
-109.355774,141.519241,669.000000
-99.692314,137.076935,648.000000
-98.076927,143.846161,680.000000
-101.096161,158.865387,751.000000
-85.250008,144.269241,682.000000
-77.884621,142.788467,675.000000
-69.067314,138.134628,653.000000
-61.250008,134.750000,637.000000
-60.230778,147.230774,696.000000
-59.000008,162.250015,767.000000
-42.875008,134.750000,637.000000
-41.365395,151.673080,717.000000
-30.865393,135.807693,642.000000
-24.692314,135.807693,642.000000
-19.269238,141.307693,668.000000
-13.211546,145.326935,687.000000
-7.471163,164.365387,777.000000
-0.000008,151.884628,718.000000
7.374991,162.250015,767.000000
13.326915,146.596161,693.000000
20.278837,148.711548,703.000000
29.653837,163.096161,771.000000
34.519222,151.884628,718.000000
43.499992,159.500015,754.000000
47.855762,150.403854,711.000000
58.846146,161.826935,765.000000
59.192299,144.692322,684.000000
66.730759,146.807693,694.000000
68.644226,137.288467,649.000000
86.192299,158.019241,747.000000
87.749992,148.500015,702.000000
105.538452,165.846161,784.000000
94.182686,138.134628,653.000000
95.846146,131.788467,623.000000
105.432686,136.442322,645.000000
109.211533,133.480774,631.000000
122.403839,141.730774,670.000000
125.576912,138.134628,653.000000
156.086533,163.519241,773.000000
141.307678,141.307693,668.000000
133.355759,127.557701,603.000000
140.538452,128.826935,609.000000
179.326920,157.807693,746.000000
185.499985,156.961548,742.000000
227.942291,185.730774,878.000000
228.307678,179.384628,848.000000
169.538452,128.615387,608.000000
189.807678,139.192322,658.000000
241.442291,171.346161,810.000000
254.153839,174.730774,826.000000
245.913452,163.942322,775.000000
221.980759,143.634628,679.000000
268.557678,168.807709,798.000000
277.269226,169.442322,801.000000
291.375000,173.250015,819.000000
307.653839,178.115387,842.000000
331.500000,187.000015,884.000000
358.846130,197.365402,933.000000
364.663452,195.673080,925.000000
331.961517,173.884628,822.000000
325.807678,166.692322,788.000000
362.576904,181.288467,857.000000
394.615387,192.923080,912.000000
382.596130,182.980774,865.000000
363.798065,170.288467,805.000000
383.076904,175.576935,830.000000
401.423065,180.230774,852.000000
454.326904,199.903854,945.000000
507.548065,218.942322,1035.000000
529.500000,224.019241,1059.000000
531.528809,220.634628,1043.000000
501.057678,204.134628,965.000000
455.865387,182.346161,862.000000
484.076904,190.173080,899.000000
565.615356,218.307709,1032.000000
569.403809,215.980774,1021.000000
564.471130,210.480774,995.000000
563.076904,206.461548,976.000000
548.413452,197.788467,935.000000
485.269226,172.192322,814.000000
637.269226,222.538467,1052.000000
643.076904,221.057709,1045.000000
633.750000,214.500015,1014.000000
627.000000,209.000015,988.000000
615.240356,202.019241,955.000000
587.153809,189.961548,898.000000
633.605774,202.019241,955.000000
728.269226,228.884628,1082.000000
683.375000,211.750015,1001.000000
670.846130,204.980774,969.000000
674.548096,203.288467,961.000000
629.000000,187.000015,884.000000
744.230774,218.307709,1032.000000
627.730774,181.711548,859.000000
672.269226,192.076935,908.000000
644.250000,181.711548,859.000000
620.605774,172.826935,817.000000
0.000000,9.000000,65300.000000
1.000000,9.000000,65300.000000
2.000000,9.000000,65300.000000
3.000000,9.000000,65300.000000
4.000000,9.000000,65300.000000
5.000000,9.000000,65300.000000
6.000000,9.000000,65300.000000
7.000000,9.000000,65300.000000
-538.615417,157.096161,778.000000
-452.625000,133.875000,663.000000
-722.211548,216.663467,1073.000000
-642.230774,195.461548,968.000000
-258.269226,79.759621,395.000000
-461.913483,144.778854,717.000000
-477.865387,152.048080,753.000000
-259.375000,83.798080,415.000000
-228.307693,74.913467,371.000000
-516.721191,172.240387,853.000000
-318.346161,107.826927,534.000000
-375.384613,129.230774,640.000000
-437.307709,153.057693,758.000000
-310.317322,110.451927,547.000000
-510.846161,184.961548,916.000000
-469.701935,173.048080,857.000000
-385.538483,144.576935,716.000000
-208.365387,79.557693,394.000000
-354.634613,137.913467,683.000000
-265.000000,105.000008,520.000000
-284.000000,114.692314,568.000000
-434.971161,179.105774,887.000000
-314.903839,132.259628,655.000000
-97.528847,41.798080,207.000000
-364.615387,159.519241,790.000000
-244.942307,109.442314,542.000000
-285.288483,130.240387,645.000000
-297.692322,138.923080,688.000000
-335.500000,160.125015,793.000000
-246.836548,120.548080,597.000000
-249.576935,124.788467,618.000000
-337.461548,172.846161,856.000000
-273.846161,143.769241,712.000000
-315.375000,169.817322,841.000000
-228.730774,126.403854,626.000000
-170.769241,96.923080,480.000000
-176.192307,102.778854,509.000000
-204.615387,122.769241,608.000000
-220.673080,136.298080,675.000000
-241.471161,153.663467,761.000000
-197.538467,129.634628,642.000000
-210.442322,142.557693,706.000000
-192.403854,134.682693,667.000000
-185.432693,134.278854,665.000000
-171.230774,128.423080,636.000000
-220.932709,171.836548,851.000000
-171.500015,138.519241,686.000000
-159.375000,133.875000,663.000000
-145.153854,127.009621,629.000000
-142.423080,130.038467,644.000000
-141.096161,134.682693,667.000000
-138.317322,138.317322,685.000000
-144.038467,151.240387,749.000000
-118.019241,130.442322,646.000000
-114.576927,133.673080,662.000000
-104.451927,129.028854,639.000000
-102.000008,133.875000,663.000000
-95.192314,133.269241,660.000000
-90.596161,135.894241,673.000000
-76.000008,122.769241,608.000000
-75.461548,132.057693,654.000000
-59.230774,113.076927,560.000000
-63.076931,132.461548,656.000000
-49.759621,116.105774,575.000000
-54.615395,143.365387,710.000000
-45.365391,136.096161,674.000000
-38.769238,135.692322,672.000000
-27.451929,115.298080,571.000000
-24.269238,127.413467,631.000000
-18.576931,130.038467,644.000000
-12.769238,134.076935,664.000000
-6.067315,127.413467,631.000000
-0.000007,127.615395,632.000000
6.701915,140.740387,697.000000
12.673069,133.067322,659.000000
20.019222,140.134628,694.000000
26.076916,136.903854,678.000000
36.298069,152.451935,755.000000
39.173069,137.105774,679.000000
44.153839,132.461548,656.000000
49.769222,130.644241,647.000000
56.509609,131.855774,653.000000
62.019222,130.240387,645.000000
74.673065,142.557693,706.000000
75.692299,132.461548,656.000000
84.749992,136.903854,678.000000
105.403839,158.105774,783.000000
109.759605,153.663467,761.000000
117.999992,154.875015,767.000000
109.192299,134.884628,668.000000
116.134605,135.490387,671.000000
115.644226,127.817314,633.000000
122.115379,128.221161,635.000000
164.163452,164.163467,813.000000
169.442291,161.740387,801.000000
156.576920,142.961548,708.000000
147.461533,129.028854,639.000000
163.461533,137.307693,680.000000
152.750000,123.375008,611.000000
200.682678,156.086548,773.000000
237.192291,177.894241,881.000000
196.586533,142.355774,705.000000
220.961533,154.673080,766.000000
225.644226,152.855774,757.000000
195.076920,128.019241,634.000000
205.615372,130.846161,648.000000
231.134613,142.759628,707.000000
315.673065,189.403854,938.000000
327.115387,190.817322,945.000000
273.230774,155.076935,768.000000
241.519226,133.471161,661.000000
264.000000,142.153854,704.000000
311.538452,163.557709,810.000000
344.951904,176.682709,875.000000
350.134613,175.067322,867.000000
339.865387,165.980774,822.000000
314.769226,150.230774,744.000000
396.346130,184.961548,916.000000
428.153839,195.461548,968.000000
470.451904,210.201935,1041.000000
450.923065,197.278854,977.000000
401.423065,172.038467,852.000000
428.365387,179.913467,891.000000
466.846130,192.230774,952.000000
515.000000,207.980774,1030.000000
475.471130,188.394241,933.000000
530.134583,206.163467,1021.000000
483.365387,184.557709,914.000000
478.153839,179.307709,888.000000
453.259613,166.990387,827.000000
491.884613,178.096161,882.000000
576.951904,205.355774,1017.000000
544.615356,190.615402,944.000000
530.817322,182.740402,905.000000
557.403809,188.798080,935.000000
590.625000,196.875015,975.000000
596.923096,195.865402,970.000000
549.375000,177.490402,879.000000
621.288452,197.682709,979.000000
619.750000,194.250015,962.000000
636.846130,196.673096,974.000000
607.067322,184.759628,915.000000
646.826904,194.048080,961.000000
705.903809,208.788467,1034.000000
691.615356,201.721161,999.000000
678.759583,195.259628,967.000000
636.826904,180.721161,895.000000
659.134583,184.557709,914.000000
691.307678,191.019241,946.000000
725.576904,197.884628,980.000000
643.500000,173.250015,858.000000
643.394226,171.028854,847.000000
0.000000,10.000000,65300.000000
1.000000,10.000000,65300.000000
2.000000,10.000000,65300.000000
-478.288483,124.230774,646.000000
-755.615417,198.846161,1034.000000
5.000000,10.000000,65300.000000
6.000000,10.000000,65300.000000
7.000000,10.000000,65530.000000
-425.076935,118.076927,614.000000
-615.105774,173.269241,901.000000
-553.942322,158.269241,823.000000
-556.644226,161.346161,839.000000
12.000000,10.000000,65300.000000
-505.721161,150.961548,785.000000
-685.384644,207.692322,1080.000000
-440.000000,135.384628,704.000000
-390.153839,121.923080,634.000000
-558.519226,177.307709,922.000000
-589.596191,190.192322,989.000000
-540.201904,177.115402,921.000000
-272.307709,90.769234,472.000000
-402.221161,136.346161,709.000000
-418.269226,144.230774,750.000000
-287.740387,100.961548,525.000000
-406.538483,145.192322,755.000000
-444.759613,161.730774,841.000000
-330.230774,122.307701,636.000000
-208.942307,78.846161,410.000000
-245.500000,94.423080,491.000000
-475.182709,186.346161,969.000000
-305.288483,122.115395,635.000000
-406.134613,165.769241,862.000000
-296.307709,123.461548,642.000000
-283.355774,120.576927,627.000000
-327.750000,142.500015,741.000000
-326.682709,145.192322,755.000000
-330.846161,150.384628,782.000000
-200.115387,93.076927,484.000000
-195.461548,93.076927,484.000000
-340.221161,165.961548,863.000000
-300.384613,150.192322,781.000000
-326.250000,167.307709,870.000000
-327.384613,172.307709,896.000000
-224.134628,121.153854,630.000000
-194.538467,108.076927,562.000000
-215.384628,123.076927,640.000000
-202.038467,118.846161,618.000000
-313.182709,189.807709,987.000000
-269.538483,168.461548,876.000000
-214.317322,138.269241,719.000000
-183.173080,122.115395,635.000000
-197.980774,136.538467,710.000000
-228.038467,162.884628,847.000000
-210.548080,155.961548,811.000000
-212.500015,163.461548,850.000000
-141.826935,113.461548,590.000000
-146.538467,122.115395,635.000000
-146.846161,127.692314,664.000000
-138.980774,126.346161,657.000000
-137.711548,131.153854,682.000000
-133.461548,133.461548,694.000000
-121.855774,128.269241,667.000000
-114.230774,126.923088,660.000000
-108.865395,128.076935,666.000000
-102.307701,127.884621,665.000000
-97.355774,129.807693,675.000000
-91.000008,130.000015,676.000000
-78.500008,120.769241,628.000000
-72.692314,121.153854,630.000000
-71.076927,129.230774,672.000000
-71.442314,142.884628,743.000000
-58.846161,130.769241,680.000000
-61.615395,154.038467,801.000000
-42.740391,122.115395,635.000000
-38.076931,126.923088,660.000000
-28.942314,115.769241,602.000000
-27.423084,137.115387,713.000000
-18.346161,122.307701,636.000000
-13.153854,131.538467,684.000000
-6.201931,124.038467,645.000000
-0.000008,137.500015,715.000000
6.596146,131.923080,686.000000
12.249992,122.500008,637.000000
18.548069,123.653854,643.000000
24.538454,122.692314,638.000000
32.067299,128.269241,667.000000
44.076916,146.923080,764.000000
42.605762,121.730774,633.000000
48.846146,122.115395,635.000000
65.769218,146.153854,760.000000
66.634605,133.269241,693.000000
70.230759,127.692314,664.000000
79.384605,132.307693,688.000000
78.124992,120.192314,625.000000
82.923073,118.461548,616.000000
113.942299,151.923080,790.000000
107.846146,134.807693,701.000000
122.596146,144.230774,750.000000
115.269226,128.076935,666.000000
118.567299,124.807701,649.000000
124.230759,124.230774,646.000000
164.769226,156.923080,816.000000
146.173065,132.884628,691.000000
171.173065,148.846161,774.000000
162.461533,135.384628,704.000000
163.701920,130.961548,681.000000
158.250000,121.730774,633.000000
213.403839,158.076935,822.000000
219.692291,156.923080,816.000000
221.403839,152.692322,794.000000
223.269226,148.846161,774.000000
192.855759,124.423088,647.000000
200.615372,125.384621,652.000000
208.471146,126.346161,657.000000
209.230759,123.076927,640.000000
302.548065,172.884628,899.000000
318.115387,176.730774,919.000000
265.048065,143.269241,745.000000
230.557678,121.346161,631.000000
240.375000,123.269241,641.000000
305.000000,152.500015,793.000000
335.096130,163.461548,850.000000
316.615387,150.769241,784.000000
342.346130,159.230774,828.000000
353.269226,160.576935,835.000000
356.971130,158.653854,825.000000
425.942291,185.192322,963.000000
470.451904,200.192322,1041.000000
412.615387,171.923080,894.000000
441.000000,180.000015,936.000000
415.865387,166.346161,865.000000
398.192291,156.153854,812.000000
440.000000,169.230774,880.000000
519.807678,196.153854,1020.000000
461.596130,170.961548,889.000000
532.019226,193.461548,1006.000000
488.384613,174.423080,907.000000
349.125000,122.500008,637.000000
457.865387,157.884628,821.000000
582.625000,197.500015,1027.000000
531.346130,177.115402,921.000000
585.951904,192.115402,999.000000
559.788452,180.576935,939.000000
569.423096,180.769241,940.000000
597.538452,186.730774,971.000000
615.000000,189.230774,984.000000
606.692322,183.846161,956.000000
665.490356,198.653854,1033.000000
666.923096,196.153854,1020.000000
656.163452,190.192322,989.000000
587.596130,167.884628,873.000000
648.557678,182.692322,950.000000
632.769226,175.769241,914.000000
667.528809,182.884628,951.000000
648.211548,175.192322,911.000000
667.067322,177.884628,925.000000
648.923096,170.769241,888.000000
674.490356,175.192322,911.000000
638.250000,163.653854,851.000000
703.403809,178.076935,926.000000
0.000000,11.000000,65300.000000
1.000000,11.000000,65300.000000
2.000000,11.000000,65300.000000
3.000000,11.000000,65300.000000
4.000000,11.000000,65300.000000
5.000000,11.000000,65300.000000
6.000000,11.000000,65300.000000
-799.490417,208.086548,1139.000000
8.000000,11.000000,65300.000000
-596.673096,159.673080,874.000000
-536.442322,145.605774,797.000000
-433.240387,119.298088,653.000000
-723.807678,202.240402,1107.000000
-507.653870,143.961548,788.000000
-363.634613,104.682701,573.000000
-557.500000,162.961548,892.000000
-335.384613,99.567314,545.000000
-563.365417,169.903854,930.000000
-426.846161,130.807693,716.000000
-117.307693,36.538464,200.000000
-220.384613,69.788467,382.000000
-622.336548,200.413467,1097.000000
-387.038483,126.788467,694.000000
-272.942322,90.980774,498.000000
-447.461548,151.817322,831.000000
-297.211548,102.673080,562.000000
-356.192322,125.326927,686.000000
-441.836548,158.394241,867.000000
-291.000000,106.326927,582.000000
-392.307709,146.153854,800.000000
-287.500000,109.250008,598.000000
-256.778839,99.567314,545.000000
-599.076965,237.134628,1298.000000
-265.278839,107.240395,587.000000
-180.903854,74.721161,409.000000
-297.259613,125.509621,687.000000
-349.461548,150.903854,826.000000
-268.750000,118.750008,650.000000
-264.519226,119.663467,655.000000
-313.807709,145.423080,796.000000
-336.923096,160.038467,876.000000
-235.125000,114.548080,627.000000
-282.076935,141.038467,772.000000
-186.067307,95.548080,523.000000
-146.769241,77.461540,424.000000
-290.769226,157.846161,864.000000
-317.769257,177.576935,972.000000
-277.326935,159.673080,874.000000
-205.538467,122.038467,668.000000
-189.576935,116.192314,636.000000
-186.923080,118.384621,648.000000
-176.230774,115.461548,632.000000
-220.230774,149.442322,818.000000
-174.201935,122.586548,671.000000
-170.000015,124.230774,680.000000
-162.500015,123.500008,676.000000
-151.615387,120.028854,657.000000
-171.173080,141.403854,774.000000
-148.923080,128.615387,704.000000
-130.846161,118.384621,648.000000
-129.038467,122.586548,671.000000
-127.701935,127.701935,699.000000
-114.923088,121.307701,664.000000
-133.875015,149.625015,819.000000
-126.307701,149.990387,821.000000
-85.817314,108.701927,595.000000
-75.788467,102.855774,563.000000
-81.125008,118.567314,649.000000
-85.384621,135.192322,740.000000
-72.134621,124.596161,682.000000
-73.076935,138.846161,760.000000
-55.644238,117.471161,643.000000
-52.384624,124.413467,681.000000
-41.125008,111.625008,611.000000
-39.519238,125.144241,685.000000
-27.500006,104.500008,572.000000
-24.307699,115.461548,632.000000
-19.125008,121.125008,663.000000
-12.153853,115.461548,632.000000
-6.086546,115.644241,633.000000
-0.000008,129.346161,708.000000
6.365377,120.942314,662.000000
12.711531,120.759621,661.000000
18.201916,115.278854,631.000000
23.923069,113.634621,622.000000
33.028839,125.509621,687.000000
39.807686,126.057701,690.000000
43.749992,118.750008,650.000000
49.384609,117.288467,642.000000
64.384605,135.923080,744.000000
61.826916,117.471161,643.000000
66.740379,115.278854,631.000000
86.192299,136.471161,747.000000
81.249992,118.750008,650.000000
83.192299,112.903854,618.000000
97.067299,122.951927,673.000000
93.692299,111.259621,609.000000
112.951912,126.240395,691.000000
113.538452,119.846161,656.000000
120.576912,120.576927,660.000000
122.499992,116.375008,637.000000
134.278839,121.490395,665.000000
133.269226,115.096161,630.000000
150.163452,124.048088,679.000000
149.769226,118.567314,649.000000
155.769226,118.384621,648.000000
163.500000,119.480774,654.000000
164.076920,115.461548,632.000000
159.923065,108.519241,594.000000
181.250000,118.750008,650.000000
186.057678,117.836548,645.000000
234.884613,143.961548,788.000000
248.307678,147.432709,807.000000
216.086533,124.413467,681.000000
228.192307,127.519241,698.000000
228.509613,124.048088,679.000000
239.538452,126.423088,692.000000
300.980774,154.557709,846.000000
326.653839,163.326935,894.000000
247.875000,120.759621,661.000000
249.615372,118.567314,649.000000
245.605759,113.817314,623.000000
328.326904,148.528854,813.000000
391.548065,173.009628,947.000000
435.769226,188.173096,1030.000000
399.375000,168.625015,923.000000
393.211517,162.413467,889.000000
413.057678,166.980774,914.000000
450.461517,178.307709,976.000000
411.788452,159.673080,874.000000
486.057678,184.701935,1011.000000
474.692291,176.846161,968.000000
465.000000,169.903854,930.000000
478.019226,171.365402,938.000000
527.538452,185.615402,1016.000000
581.201904,200.778854,1099.000000
587.461548,199.317322,1091.000000
542.048096,180.682709,989.000000
530.923096,173.923080,952.000000
528.730774,170.269241,932.000000
548.076904,173.557709,950.000000
593.576904,184.884628,1012.000000
625.365356,191.644241,1049.000000
631.211548,190.365402,1042.000000
584.615356,173.557709,950.000000
571.250000,166.980774,914.000000
612.403809,176.298080,965.000000
659.048096,186.894241,1023.000000
638.153809,178.307709,976.000000
648.201904,178.490402,977.000000
660.288452,179.221161,981.000000
614.423096,164.423080,900.000000
651.461548,171.913467,941.000000
682.971130,177.759628,973.000000
648.923096,166.615402,912.000000
632.451904,160.221161,877.000000
648.923096,162.230774,888.000000
653.019226,161.134628,882.000000
690.750000,168.259628,921.000000
710.240356,170.817322,935.000000
0.000000,12.000000,65300.000000
1.000000,12.000000,65300.000000
2.000000,12.000000,65300.000000
3.000000,12.000000,65300.000000
4.000000,12.000000,65300.000000
5.000000,12.000000,65300.000000
-431.192322,104.884621,606.000000
-253.394241,62.480774,361.000000
-362.769226,90.692314,524.000000
-450.576935,114.230774,660.000000
-265.865387,68.365387,395.000000
-233.538467,60.923080,352.000000
-390.346161,103.326927,597.000000
-143.019226,38.423080,222.000000
-539.423096,147.115387,850.000000
-684.375000,189.519241,1095.000000
-514.461548,144.692322,836.000000
-493.701935,141.057709,815.000000
-509.711548,147.980774,855.000000
-601.788452,177.576935,1026.000000
-467.884613,140.365387,811.000000
-430.019226,131.192322,758.000000
-335.173096,104.019241,601.000000
-203.884613,64.384621,372.000000
-542.769226,174.461548,1008.000000
-426.250000,139.500015,806.000000
-340.615387,113.538467,656.000000
-441.326935,149.884628,866.000000
-460.500000,159.403854,921.000000
-394.269226,139.153854,804.000000
-301.442322,108.519241,627.000000
-400.951935,147.288467,851.000000
-252.000000,94.500008,546.000000
-286.067322,109.557701,633.000000
-414.442322,162.173080,937.000000
-248.365387,99.346161,574.000000
-266.961548,109.211548,631.000000
-20.673077,8.653847,50.000000
-299.250000,128.250015,741.000000
-255.855774,112.326927,649.000000
-393.461548,177.057709,1023.000000
-291.750000,134.653854,778.000000
-234.576935,111.115395,642.000000
-273.942322,133.269241,770.000000
-88.269234,44.134617,255.000000
-264.182709,135.865387,785.000000
-339.346161,179.653854,1038.000000
-181.817322,99.173080,573.000000
-231.076935,129.980774,751.000000
-245.913467,142.788467,825.000000
-216.057693,129.634628,749.000000
-241.201935,149.711548,865.000000
-214.038467,137.596161,795.000000
-168.230774,112.153854,648.000000
-190.250015,131.711548,761.000000
